2.489515542984009 114.39041137695312 0.9268953800201416 0.984313725490196
0.9309679269790649 114.92093658447266 -0.36626961827278137 0.023529411764705882
2.462239980697632 114.38638305664062 1.064143419265747 0.9725490196078431
1.1281955242156982 114.84536743164062 -0.358697772026062 0.01568627450980392
2.442012071609497 114.39923858642578 1.1977012157440186 0.984313725490196
1.3483326435089111 114.76084899902344 -0.3547636866569519 0.07058823529411765
2.4354987144470215 114.40670013427734 1.328131914138794 0.9725490196078431
1.56873619556427 114.6766357421875 -0.3401685059070587 0.03137254901960784
2.4410717487335205 114.40948486328125 1.457706332206726 0.9803921568627451
1.8318322896957397 114.57566833496094 -0.3342958092689514 0.03137254901960784
2.43257212638855 114.41766357421875 1.5867642164230347 0.984313725490196
2.0932719707489014 114.47581481933594 -0.3157542049884796 0.043137254901960784
2.4492411613464355 114.41610717773438 1.7145018577575684 0.984313725490196
2.4343199729919434 114.34456634521484 -0.31783512234687805 0.050980392156862744
2.4500908851623535 114.42070007324219 1.8437845706939697 0.4549019607843137
2.7837064266204834 114.2106704711914 -0.30505555868148804 0.023529411764705882
3.1931962966918945 114.0534439086914 -0.2979305386543274 0.027450980392156862
56.532493591308594 93.73804473876953 4.9538140296936035 0.24705882352941178
3.672887086868286 113.86910247802734 -0.2939658761024475 0.027450980392156862
4.274078845977783 113.6375732421875 -0.30194035172462463 0.011764705882352941
4.934653282165527 113.38365936279297 -0.29781511425971985 0.01568627450980392
5.024588108062744 113.35592651367188 -0.11747776716947556 0.01568627450980392
2.5698235034942627 114.32884979248047 0.6394901871681213 0.41568627450980394
2.4988150596618652 114.3619155883789 0.790757954120636 0.984313725490196
2.482938528060913 114.37322235107422 0.9275492429733276 0.984313725490196
0.9233527779579163 114.91091918945312 -0.36388999223709106 0.027450980392156862
2.5002245903015137 114.35275268554688 1.0582233667373657 0.32941176470588235
1.117025375366211 114.83609008789062 -0.3545106053352356 0.01568627450980392
2.4265270233154297 114.38672637939453 1.199446201324463 0.6313725490196078
1.3401286602020264 114.74954986572266 -0.3524991273880005 0.0784313725490196
2.432976722717285 114.38912200927734 1.328384518623352 0.9725490196078431
1.561902403831482 114.66397094726562 -0.3388109803199768 0.03137254901960784
2.4404075145721436 114.39115905761719 1.4579194784164429 0.9725490196078431
1.831441044807434 114.5594253540039 -0.3361796736717224 0.027450980392156862
2.437509298324585 114.39717864990234 1.5868538618087769 0.984313725490196
2.109743595123291 114.4518051147461 -0.32512804865837097 0.027450980392156862
2.4467148780822754 114.39847564697266 1.7150352001190186 0.984313725490196
2.429842233657837 114.32780456542969 -0.3179464638233185 0.050980392156862744
2.4699368476867676 114.39437866210938 1.8444825410842896 0.5137254901960784
2.785801410675049 114.18999481201172 -0.30779364705085754 0.0196078431372549
5.0539422035217285 113.39884948730469 2.045879602432251 0.011764705882352941
3.171989917755127 114.04066467285156 -0.2921558618545532 0.027450980392156862
34.51731491088867 102.02696990966797 3.799114465713501 0.10980392156862745
3.674046754837036 113.84559631347656 -0.29615792632102966 0.027450980392156862
34.651058197021484 102.01097106933594 4.744930267333984 0.12156862745098039
4.265641689300537 113.61573791503906 -0.30111053586006165 0.011764705882352941
4.930811405181885 113.35760498046875 -0.29840779304504395 0.01568627450980392
4.950096130371094 113.3576431274414 -0.10016325861215591 1.0
2.4888575077056885 114.34706115722656 0.7921062707901001 0.984313725490196
2.48583722114563 114.35334014892578 0.9265742897987366 0.984313725490196
0.9205508828163147 114.89892578125 -0.36443445086479187 0.023529411764705882
1.1107369661331177 114.82483673095703 -0.35312458872795105 0.01568627450980392
2.433181047439575 114.36550903320312 1.1984747648239136 0.23529411764705882
1.3352025747299194 114.73692321777344 -0.35201966762542725 0.0784313725490196
2.428541898727417 114.37227630615234 1.328816533088684 0.9725490196078431
1.5667517185211182 114.64651489257812 -0.3434045910835266 0.027450980392156862
2.4638102054595947 114.36329650878906 1.4563994407653809 0.4
1.8174492120742798 114.5487289428711 -0.3316050171852112 0.03137254901960784
2.431213140487671 114.38104248046875 1.5874665975570679 0.984313725490196
2.1021647453308105 114.43746185302734 -0.3237924575805664 0.027450980392156862
2.451573133468628 114.37791442871094 1.7154055833816528 0.984313725490196
2.427037000656128 114.31034851074219 -0.31878039240837097 0.050980392156862744
2.463597297668457 114.37812805175781 1.8450995683670044 0.9647058823529412
2.7791059017181396 114.1728286743164 -0.3071419894695282 0.023529411764705882
5.0686469078063965 113.36502075195312 2.047487258911133 0.023529411764705882
3.096268653869629 114.05008697509766 -0.266731321811676 0.027450980392156862
34.21677017211914 102.009521484375 3.790004253387451 0.10588235294117647
3.6733508110046387 113.82278442382812 -0.2977598011493683 0.027450980392156862
34.330169677734375 102.00067138671875 4.727844715118408 0.11764705882352941
4.2624897956848145 113.5917739868164 -0.3019176721572876 0.01568627450980392
34.427127838134766 101.99824523925781 5.6652727127075195 0.12156862745098039
4.935863018035889 113.32792663574219 -0.3015027940273285 0.01568627450980392
5.672713279724121 113.03987121582031 -0.2836112082004547 0.00784313725490196
2.5497334003448486 114.29873657226562 0.642382800579071 0.8196078431372549
2.491641044616699 114.32714080810547 0.7909038662910461 0.984313725490196
2.4813263416290283 114.33634185791016 0.9268736839294434 0.984313725490196
0.919320285320282 114.88626861572266 -0.36595290899276733 0.023529411764705882
2.4525017738342285 114.33415222167969 1.0646268129348755 0.9803921568627451
1.1223769187927246 114.80611419677734 -0.3620004653930664 0.01568627450980392
2.426837682723999 114.34939575195312 1.1990858316421509 0.24705882352941178
1.3335431814193726 114.72293090820312 -0.35332417488098145 0.08627450980392157
2.4277520179748535 114.35395812988281 1.328888177871704 0.9725490196078431
1.5614999532699585 114.63317108154297 -0.34289872646331787 0.03137254901960784
1.8017419576644897 114.5387954711914 -0.32622650265693665 0.0392156862745098
2.4360082149505615 114.3604965209961 1.5875574350357056 0.984313725490196
2.096251964569092 114.42243957519531 -0.3232228457927704 0.027450980392156862
2.441481351852417 114.36319732666016 1.7161003351211548 0.984313725490196
2.4189982414245605 114.2950210571289 -0.31745076179504395 0.050980392156862744
2.451627254486084 114.36409759521484 1.8456960916519165 0.7803921568627451
2.7740983963012695 114.15497589111328 -0.307169646024704 0.027450980392156862
15.732728958129883 109.1308822631836 2.3510708808898926 0.01568627450980392
3.104928493499756 114.02548217773438 -0.27174779772758484 0.03529411764705882
34.146976470947266 101.90312957763672 3.7931110858917236 0.10588235294117647
3.661959171295166 113.80427551269531 -0.29582417011260986 0.03137254901960784
34.133995056152344 101.94341278076172 4.7204484939575195 0.11764705882352941
4.257473468780518 113.56851959228516 -0.3021806478500366 0.011764705882352941
34.18101501464844 101.96000671386719 5.648961067199707 0.11764705882352941
4.919274806976318 113.30693054199219 -0.2985961437225342 0.01568627450980392
2.5704801082611084 114.27127838134766 0.6368666887283325 0.5098039215686274
2.485231637954712 114.31085968017578 0.7915213108062744 0.984313725490196
2.4785914421081543 114.31861114501953 0.9268538355827332 0.984313725490196
0.9164373278617859 114.87428283691406 -0.3664984107017517 0.023529411764705882
2.45526123046875 114.31426239013672 1.0638810396194458 0.9803921568627451
1.1045849323272705 114.7996597290039 -0.3540876805782318 0.01568627450980392
2.429656982421875 114.32958221435547 1.198567271232605 0.23137254901960785
1.3301851749420166 114.70963287353516 -0.353738009929657 0.08627450980392157
2.4268980026245117 114.33561706542969 1.328959584236145 0.9725490196078431
1.556206464767456 114.6198501586914 -0.34239405393600464 0.03137254901960784
2.43802809715271 114.3360824584961 1.458558201789856 0.9803921568627451
1.7556164264678955 114.5416259765625 -0.3063261806964874 0.09411764705882353
2.4295973777770996 114.3443603515625 1.5881686210632324 0.984313725490196
2.0954113006591797 114.40530395507812 -0.3249475061893463 0.027450980392156862
2.4462013244628906 114.34259033203125 1.7164714336395264 0.984313725490196
2.419527769088745 114.2761459350586 -0.31972911953926086 0.054901960784313725
2.765554189682007 114.13856506347656 -0.3058432340621948 0.023529411764705882
5.032633304595947 113.32288360595703 2.0488598346710205 0.011764705882352941
3.146806478500366 113.98704528808594 -0.28880035877227783 0.03529411764705882
34.1307258605957 101.77565002441406 3.7990822792053223 0.10588235294117647
3.6558144092559814 113.78363800048828 -0.2956591844558716 0.027450980392156862
34.14366912841797 101.80570220947266 4.7292094230651855 0.11764705882352941
4.2559404373168945 113.54381561279297 -0.30353423953056335 0.011764705882352941
34.109066009521484 101.8543930053711 5.650659084320068 0.11764705882352941
4.9205474853515625 113.27867126464844 -0.3006913363933563 0.01568627450980392
4.941664218902588 113.27774810791016 -0.10244321823120117 1.0
30.410511016845703 103.41153717041016 7.789931774139404 0.08627450980392157
2.4878790378570557 114.2908935546875 0.7903192043304443 0.984313725490196
2.473966360092163 114.30162048339844 0.9271513223648071 0.984313725490196
0.9086917638778687 114.86434936523438 -0.36412373185157776 0.027450980392156862
2.45611310005188 114.29508972167969 1.0634074211120605 0.9803921568627451
1.1209917068481445 114.77877807617188 -0.36575847864151 0.01568627450980392
2.4213602542877197 114.3142318725586 1.1994019746780396 0.23529411764705882
1.3218364715576172 114.69842529296875 -0.35147908329963684 0.09411764705882353
2.4278242588043213 114.31652069091797 1.3288516998291016 0.9725490196078431
1.5475351810455322 114.60795593261719 -0.340192049741745 0.03137254901960784
2.4334065914154053 114.31919860839844 1.4590362310409546 0.9803921568627451
1.7314753532409668 114.53550720214844 -0.2969246506690979 0.0784313725490196
2.4379544258117676 114.3222427368164 1.5880879163742065 0.984313725490196
2.087693452835083 114.39102172851562 -0.3236159086227417 0.027450980392156862
2.441570997238159 114.32566833496094 1.717043399810791 0.984313725490196
2.416548013687134 114.2586898803711 -0.3205653429031372 0.06666666666666667
5.045313358306885 113.2822494506836 1.8564589023590088 0.011764705882352941
2.758697748184204 114.12146759033203 -0.3051961660385132 0.0196078431372549
3.1850028038024902 113.94979095458984 -0.30457639694213867 0.023529411764705882
34.13628005981445 101.63922119140625 3.8062446117401123 0.10588235294117647
3.654898166656494 113.76081085205078 -0.2972632944583893 0.027450980392156862
34.132469177246094 101.6759262084961 4.736364841461182 0.11764705882352941
4.252542972564697 113.51982879638672 -0.30434343218803406 0.011764705882352941
34.09043884277344 101.72770690917969 5.657920837402344 0.11764705882352941
4.921719074249268 113.25037384033203 -0.3027861416339874 0.01568627450980392
5.6865129470825195 112.9427490234375 -0.29199910163879395 0.00784313725490196
2.486814022064209 114.27237701416016 0.7898446917533875 0.984313725490196
2.4747676849365234 114.28240203857422 0.926494836807251 0.984313725490196
0.9105519652366638 114.8503189086914 -0.36759066581726074 0.023529411764705882
2.453230619430542 114.27739715576172 1.0634764432907104 0.9803921568627451
1.0933870077133179 114.7765884399414 -0.3522568345069885 0.01568627450980392
2.4258840084075928 114.29362487792969 1.1986583471298218 0.23529411764705882
1.3151031732559204 114.68656158447266 -0.3501131236553192 0.10196078431372549
2.4268391132354736 114.29815673828125 1.328923225402832 0.9725490196078431
1.5454943180084229 114.59325408935547 -0.3413882255554199 0.027450980392156862
2.4342706203460693 114.300048828125 1.4591158628463745 0.9803921568627451
1.7359765768051147 114.5173568725586 -0.30124011635780334 0.050980392156862744
2.4314231872558594 114.30610656738281 1.5886980295181274 0.984313725490196
2.0833373069763184 114.37532806396484 -0.3238138258457184 0.027450980392156862
2.438737154006958 114.30799865722656 1.7175745964050293 0.9137254901960784
2.4031970500946045 114.2455825805664 -0.31707680225372314 0.050980392156862744
13.126996994018555 109.97052001953125 1.8879828453063965 0.043137254901960784
2.755256175994873 114.10292053222656 -0.3059047758579254 0.023529411764705882
34.197181701660156 101.44509887695312 2.891777992248535 0.11372549019607843
3.1793007850646973 113.93063354492188 -0.30451372265815735 0.023529411764705882
34.11912155151367 101.51158905029297 3.812211751937866 0.10588235294117647
3.650376319885254 113.73944091796875 -0.2976895868778229 0.027450980392156862
34.130062103271484 101.54235076904297 4.744250774383545 0.11764705882352941
4.254390716552734 113.49361419677734 -0.30678585171699524 0.011764705882352941
34.124935150146484 101.57942962646484 5.670764923095703 0.11764705882352941
4.917425632476807 113.22427368164062 -0.3033824861049652 0.01568627450980392
4.953815460205078 113.22454833984375 0.09556835144758224 0.011764705882352941
2.4802327156066895 114.25611114501953 0.7904595136642456 0.9450980392156862
2.4700253009796143 114.26541137695312 0.9267908334732056 0.984313725490196
0.9043431282043457 114.83972930908203 -0.36619171500205994 0.023529411764705882
2.4502875804901123 114.25971221923828 1.0635449886322021 0.9803921568627451
1.0917959213256836 114.76333618164062 -0.3536730110645294 0.01568627450980392
2.4340007305145264 114.27143859863281 1.1974660158157349 0.4
1.3132686614990234 114.67259216308594 -0.3514206111431122 0.08627450980392157
2.422107696533203 114.28129577636719 1.3293521404266357 0.9725490196078431
1.541739583015442 114.57926940917969 -0.34173598885536194 0.03529411764705882
2.4332211017608643 114.2816390991211 1.459328055381775 0.9803921568627451
1.797612190246582 114.47467041015625 -0.3329707980155945 0.027450980392156862
2.4303839206695557 114.2876968383789 1.589048981666565 0.984313725490196
2.085728883743286 114.35673522949219 -0.3270673155784607 0.03137254901960784
2.465435266494751 114.27816772460938 1.717473030090332 0.41568627450980394
2.4001128673553467 114.22815704345703 -0.31791549921035767 0.050980392156862744
5.0144453048706055 113.23816680908203 1.8582525253295898 0.011764705882352941
2.75175142288208 114.08438110351562 -0.3066139221191406 0.023529411764705882
4.997627258300781 113.25235748291016 2.051450490951538 0.00784313725490196
3.1770291328430176 113.91001892089844 -0.3057178258895874 0.023529411764705882
34.16254806518555 101.35902404785156 3.821474552154541 0.10588235294117647
3.6510634422302246 113.7158432006836 -0.29988333582878113 0.023529411764705882
34.143802642822266 101.4018783569336 4.753456115722656 0.11764705882352941
4.2472758293151855 113.4710922241211 -0.30650797486305237 0.011764705882352941
34.110904693603516 101.45027160644531 5.678603649139404 0.12156862745098039
4.913044452667236 113.19816589355469 -0.3039797246456146 0.01568627450980392
4.898281574249268 113.21206665039062 -0.09609964489936829 1.0
6.6073102951049805 112.50428771972656 -0.27974894642829895 0.027450980392156862
2.493563413619995 114.23152923583984 0.7870801687240601 0.4980392156862745
2.4706945419311523 114.24615478515625 0.9261341691017151 0.984313725490196
0.896501362323761 114.82987213134766 -0.3638212978839874 0.027450980392156862
2.4491121768951416 114.24124908447266 1.0633419752120972 0.9803921568627451
1.098272681236267 114.74653625488281 -0.3597487509250641 0.0196078431372549
1.3113869428634644 114.65862274169922 -0.3527286648750305 0.10196078431372549
2.419159173965454 114.26367950439453 1.3296014070510864 0.9725490196078431
1.5412623882293701 114.56385040283203 -0.34378188848495483 0.03529411764705882
2.4228951930999756 114.26705169677734 1.4601999521255493 0.5137254901960784
1.7951792478561401 114.45915222167969 -0.33405303955078125 0.03137254901960784
2.427434206008911 114.27005004882812 1.5894854068756104 0.984313725490196
2.074469566345215 114.34396362304688 -0.32421261072158813 0.027450980392156862
2.3969695568084717 114.21073150634766 -0.31875482201576233 0.054901960784313725
5.006311416625977 113.21317291259766 1.8591737747192383 0.011764705882352941
2.744724988937378 114.06732940673828 -0.3059706687927246 0.023529411764705882
3.1729421615600586 113.89013671875 -0.30629000067710876 0.023529411764705882
3.6428749561309814 113.69596099853516 -0.29913368821144104 0.027450980392156862
34.1348876953125 101.27025604248047 4.760903358459473 0.11764705882352941
4.245401382446289 113.44633483886719 -0.30786290764808655 0.011764705882352941
34.12958526611328 101.30746459960938 5.689915657043457 0.12156862745098039
4.910356521606445 113.17130279541016 -0.30507656931877136 0.01568627450980392
4.9064154624938965 113.18067169189453 -0.099741630256176 0.00784313725490196
4.91431999206543 113.18500518798828 0.10186785459518433 0.011764705882352941
2.4904794692993164 114.21371459960938 0.7869688272476196 0.7176470588235294
2.467653512954712 114.22840118408203 0.9261119365692139 0.984313725490196
0.8886332511901855 114.82003784179688 -0.3614528477191925 0.027450980392156862
2.4496967792510986 114.22200012207031 1.062868356704712 0.9803921568627451
1.0917190313339233 114.73538208007812 -0.3583700656890869 0.01568627450980392
2.420673131942749 114.23922729492188 1.19868004322052 0.984313725490196
1.3045356273651123 114.64680480957031 -0.3513661324977875 0.10196078431372549
2.4234941005706787 114.24296569824219 1.329136610031128 0.9725490196078431
1.5274533033370972 114.55421447753906 -0.3390401303768158 0.03137254901960784
2.423567533493042 114.24787139892578 1.4602789878845215 0.5294117647058824
1.7826248407363892 114.4480209350586 -0.33029961585998535 0.03529411764705882
2.428110122680664 114.25084686279297 1.5897504091262817 0.984313725490196
2.0767412185668945 114.32534790039062 -0.3274664282798767 0.03137254901960784
2.433562994003296 114.2534408569336 1.7190866470336914 0.984313725490196
2.3954787254333496 114.19256591796875 -0.32031452655792236 0.054901960784313725
12.958633422851562 109.86634063720703 1.8931514024734497 0.027450980392156862
2.735917568206787 114.05104064941406 -0.3046526312828064 0.023529411764705882
3.167045831680298 113.87100219726562 -0.3062303066253662 0.0196078431372549
3.6451597213745117 113.67157745361328 -0.3019162714481354 0.027450980392156862
4.246977806091309 113.42003631591797 -0.3103054463863373 0.011764705882352941
4.902234077453613 113.14671325683594 -0.3046777546405792 0.01568627450980392
4.9170145988464355 113.15577697753906 0.0999099463224411 0.011764705882352941
2.4855239391326904 114.19667053222656 0.7872194051742554 0.984313725490196
2.4718236923217773 114.20756530761719 0.9248216152191162 0.984313725490196
0.886863648891449 114.8067855834961 -0.3629523813724518 0.027450980392156862
2.4480104446411133 114.2026138305664 1.0626989603042603 0.6980392156862745
1.084855556488037 114.72358703613281 -0.35696813464164734 0.01568627450980392
2.4172136783599854 114.220703125 1.1988697052001953 0.984313725490196
1.3039093017578125 114.63142395019531 -0.35353943705558777 0.09411764705882353
2.4255387783050537 114.22208404541016 1.3288847208023071 0.9725490196078431
1.5066860914230347 114.54683685302734 -0.33088022470474243 0.00784313725490196
2.438490867614746 114.2215347290039 1.4593393802642822 0.9803921568627451
1.781446933746338 114.43101501464844 -0.3321602940559387 0.03137254901960784
2.4209775924682617 114.23384094238281 1.5903903245925903 0.984313725490196
2.063354730606079 114.31254577636719 -0.32382097840309143 0.027450980392156862
2.4319474697113037 114.23407745361328 1.7196108102798462 0.6745098039215687
2.383293628692627 114.177978515625 -0.317521870136261 0.050980392156862744
4.970802307128906 113.1696548461914 1.8609825372695923 0.011764705882352941
2.7370150089263916 114.0293197631836 -0.30735811591148376 0.023529411764705882
5.029609680175781 113.15221405029297 2.0560762882232666 0.0
3.1589183807373047 113.85162353515625 -0.30550116300582886 0.0196078431372549
3.6416285037994385 113.6483383178711 -0.30289211869239807 0.023529411764705882
4.235584259033203 113.3978500366211 -0.3088984191417694 0.01568627450980392
4.902365684509277 113.11698150634766 -0.3067237138748169 0.01568627450980392
4.880615234375 113.13404846191406 -0.09653901308774948 0.0
6.606306076049805 112.39986419677734 -0.2845551073551178 0.0196078431372549
2.483747959136963 114.17717742919922 0.7867783308029175 0.7294117647058823
2.4646413326263428 114.19044494628906 0.9254659414291382 0.984313725490196
0.8885013461112976 114.792724609375 -0.3664207458496094 0.023529411764705882
2.4502739906311035 114.18253326416016 1.0619553327560425 0.49411764705882355
1.0830820798873901 114.71031951904297 -0.3583860397338867 0.01568627450980392
2.4323277473449707 114.19522857666016 1.1967841386795044 0.2549019607843137
1.2937047481536865 114.62109375 -0.35039934515953064 0.09411764705882353
2.420558452606201 114.20520782470703 1.329311490058899 0.9725490196078431
1.4680155515670776 114.54839324951172 -0.3134237825870514 0.00784313725490196
2.429825782775879 114.20618438720703 1.4600772857666016 0.9803921568627451
1.7788639068603516 114.41551971435547 -0.3332446217536926 0.03137254901960784
2.4251949787139893 114.21305084228516 1.590484857559204 0.984313725490196
2.0621230602264404 114.29541015625 -0.32554981112480164 0.03137254901960784
2.379978656768799 114.16057586669922 -0.31836360692977905 0.050980392156862744
4.98453426361084 113.13539123535156 1.8619935512542725 0.01568627450980392
2.7349846363067627 114.01004028320312 -0.308746874332428 0.023529411764705882
4.975155353546143 113.14665222167969 2.055680990219116 0.0196078431372549
3.1598470211029053 113.82948303222656 -0.30797284841537476 0.0196078431372549
3.634979724884033 113.62772369384766 -0.3027341067790985 0.023529411764705882
4.238744258880615 113.37074279785156 -0.3118843734264374 0.01568627450980392
4.897619724273682 113.09085845947266 -0.3073245882987976 0.01568627450980392
6.608341693878174 112.36448669433594 -0.2867209017276764 0.027450980392156862
2.466850996017456 114.17032623291016 0.9244928359985352 0.984313725490196
0.8789366483688354 114.7836685180664 -0.36308354139328003 0.023529411764705882
2.4524624347686768 114.16242980957031 1.061212420463562 0.9803921568627451
1.0812633037567139 114.6970443725586 -0.35980430245399475 0.01568627450980392
2.4126851558685303 114.18465423583984 1.19895601272583 0.4392156862745098
1.2932775020599365 114.60640716552734 -0.35260000824928284 0.09411764705882353
2.421008825302124 114.18596649169922 1.3292042016983032 0.9725490196078431
1.4872480630874634 114.52425384521484 -0.32565343379974365 0.00784313725490196
2.426612138748169 114.18849182128906 1.460419774055481 0.9803921568627451
1.7745561599731445 114.40077209472656 -0.33352431654930115 0.03137254901960784
2.423827648162842 114.19457244873047 1.5908348560333252 0.984313725490196
2.0591423511505127 114.27900695800781 -0.32651594281196594 0.03137254901960784
4.951847076416016 113.11353302001953 1.667846441268921 0.011764705882352941
2.380014657974243 114.14165496826172 -0.32064563035964966 0.054901960784313725
12.624955177307129 109.8321762084961 1.8975633382797241 0.027450980392156862
2.729445457458496 113.99227142333984 -0.3087843358516693 0.023529411764705882
3.155488967895508 113.80960845947266 -0.3085484206676483 0.0196078431372549
3.6335108280181885 113.60480499267578 -0.30434107780456543 0.023529411764705882
4.2277092933654785 113.34980010986328 -0.3105261027812958 0.01568627450980392
4.892784118652344 113.06473541259766 -0.3079259395599365 0.01568627450980392
4.87114953994751 113.0819091796875 -0.09747510403394699 0.00784313725490196
4.891587734222412 113.08060455322266 0.10142415016889572 0.011764705882352941
27.884506225585938 103.49666595458984 7.422682762145996 0.06666666666666667
2.4617416858673096 114.15333557128906 0.9247851371765137 0.984313725490196
0.8741216063499451 114.77249145507812 -0.3626643121242523 0.0196078431372549
2.4454996585845947 114.1462631225586 1.0618185997009277 0.9803921568627451
1.081010341644287 114.68302917480469 -0.36215394735336304 0.01568627450980392
2.414879322052002 114.16461944580078 1.198439359664917 0.4745098039215686
1.2911655902862549 114.59245300292969 -0.35391098260879517 0.10196078431372549
2.4177358150482178 114.16829681396484 1.3294520378112793 0.9725490196078431
1.5146266222000122 114.49624633789062 -0.3421173393726349 0.03529411764705882
2.425168037414551 114.16999816894531 1.4606307744979858 0.9803921568627451
1.7651927471160889 114.3882827758789 -0.3313896059989929 0.03137254901960784
2.431558132171631 114.17211151123047 1.5907617807388306 0.9725490196078431
2.047672986984253 114.26640319824219 -0.323670357465744 0.027450980392156862
12.449474334716797 109.83650970458984 1.512434959411621 0.023529411764705882
2.368063449859619 114.1280517578125 -0.31789150834083557 0.058823529411764705
4.954668998718262 113.09111785888672 1.8637607097625732 0.011764705882352941
2.725566864013672 113.97374725341797 -0.30949848890304565 0.01568627450980392
4.9636664390563965 113.09449768066406 2.0577640533447266 0.00784313725490196
3.1372008323669434 113.7959213256836 -0.30407100915908813 0.01568627450980392
3.624974250793457 113.5849838256836 -0.3035978376865387 0.023529411764705882
4.230685234069824 113.32264709472656 -0.31351223587989807 0.011764705882352941
4.882546424865723 113.04096221923828 -0.3070346415042877 0.01568627450980392
4.841339588165283 113.06685638427734 -0.09160471707582474 1.0
6.601274490356445 112.2983169555664 -0.288607120513916 0.027450980392156862
7.691346168518066 111.827880859375 -0.26171502470970154 0.03137254901960784
2.465618371963501 114.13237762451172 0.9234963655471802 0.984313725490196
27.825489044189453 103.46788024902344 9.021279335021973 0.0784313725490196
0.8708598017692566 114.7605972290039 -0.36321768164634705 0.023529411764705882
2.4421119689941406 114.12850952148438 1.0618841648101807 0.9803921568627451
1.0742682218551636 114.67195129394531 -0.36078062653541565 0.01568627450980392
2.415179967880249 114.1453628540039 1.1981468200683594 0.48627450980392156
1.2841178178787231 114.58071899414062 -0.3525545597076416 0.08627450980392157
2.4180498123168945 114.14901733398438 1.3293445110321045 0.9725490196078431
1.5089035034179688 114.48307037353516 -0.3416239023208618 0.03529411764705882
2.425485372543335 114.15069580078125 1.460710883140564 0.9803921568627451
1.7657955884933472 114.37129211425781 -0.33408647775650024 0.027450980392156862
2.441027879714966 114.14877319335938 1.5906063318252563 0.403921568627451
2.042907476425171 114.25078582763672 -0.32387685775756836 0.027450980392156862
12.32988166809082 109.83220672607422 1.5162664651870728 0.023529411764705882
2.361177444458008 114.11219787597656 -0.3172977864742279 0.050980392156862744
4.949724197387695 113.0646743774414 1.8646875619888306 0.011764705882352941
2.718193531036377 113.95677185058594 -0.3088627755641937 0.0196078431372549
4.934874057769775 113.0783920288086 2.0581142902374268 0.0196078431372549
3.1465725898742676 113.7698745727539 -0.30970248579978943 0.0196078431372549
3.616375684738159 113.565185546875 -0.3028565049171448 0.023529411764705882
4.226531982421875 113.29859161376953 -0.3143272399902344 0.011764705882352941
4.851011753082275 113.02670288085938 -0.3001728355884552 0.023529411764705882
4.844191074371338 113.04500579833984 0.10931046307086945 1.0
7.691591262817383 111.78894805908203 -0.2633877992630005 0.03137254901960784
2.462191104888916 114.11457061767578 0.9234716892242432 0.9529411764705882
0.8593550324440002 114.75175476074219 -0.35889121890068054 0.0196078431372549
2.4400789737701416 114.10906219482422 1.061713457107544 0.9803921568627451
1.0639917850494385 114.66173553466797 -0.35752370953559875 0.0196078431372549
2.413201093673706 114.12599182128906 1.1981110572814941 0.4549019607843137
1.2848666906356812 114.5645751953125 -0.3556192219257355 0.0784313725490196
2.417900562286377 114.12882232666016 1.3292707204818726 0.9725490196078431
1.5110489130020142 114.46540069580078 -0.3453410565853119 0.03137254901960784
2.4180397987365723 114.13369750976562 1.4613465070724487 0.9803921568627451
1.7693240642547607 114.35197448730469 -0.338363915681839 0.027450980392156862
2.0444552898406982 114.23128509521484 -0.327101469039917 0.03137254901960784
12.163524627685547 109.84616088867188 1.5211113691329956 0.023529411764705882
2.362344741821289 114.09161376953125 -0.3202679753303528 0.050980392156862744
12.22801685333252 109.83199310302734 1.9014244079589844 0.023529411764705882
2.708639621734619 113.93965911865234 -0.3075183629989624 0.0196078431372549
4.953066825866699 113.04020690917969 2.0599474906921387 0.0
3.1432948112487793 113.74820709228516 -0.3108740746974945 0.0196078431372549
3.6176815032958984 113.53958892822266 -0.30559858679771423 0.027450980392156862
4.223520755767822 113.27253723144531 -0.315640389919281 0.011764705882352941
4.8294806480407715 113.00653076171875 -0.2962544858455658 0.043137254901960784
4.830831527709961 113.0135498046875 -0.09250342100858688 0.027450980392156862
4.864999771118164 113.01332092285156 0.3036116659641266 0.03137254901960784
2.4745357036590576 114.088623046875 0.9206404089927673 0.42745098039215684
0.8655280470848083 114.73545837402344 -0.36527517437934875 0.023529411764705882
2.4528322219848633 114.08399200439453 1.0593563318252563 0.4627450980392157
1.0620023012161255 114.64847564697266 -0.35894477367401123 0.01568627450980392
2.4169869422912598 114.10505676269531 1.197372555732727 0.41568627450980394
1.2793611288070679 114.5521240234375 -0.3551539182662964 0.08627450980392157
2.418069839477539 114.1094970703125 1.329163670539856 0.9725490196078431
1.5035851001739502 114.4530029296875 -0.3440021574497223 0.03137254901960784
2.418222427368164 114.11437225341797 1.461426019668579 0.9803921568627451
1.753172755241394 114.34260559082031 -0.33301421999931335 0.03529411764705882
2.4191274642944336 114.11885070800781 1.5921822786331177 0.984313725490196
2.0278193950653076 114.2210922241211 -0.3219757080078125 0.027450980392156862
4.925858020782471 113.00897216796875 1.671148419380188 0.011764705882352941
2.3519527912139893 114.07733917236328 -0.31823861598968506 0.050980392156862744
4.9316582679748535 113.0136947631836 1.866551160812378 0.011764705882352941
2.71313738822937 113.91724395751953 -0.3116110861301422 0.023529411764705882
4.924156188964844 113.02425384521484 2.0602900981903076 0.011764705882352941
3.136936902999878 113.72913360595703 -0.310822069644928 0.0196078431372549
48.96091842651367 93.57372283935547 4.7116498947143555 0.2196078431372549
3.5985050201416016 113.52458190917969 -0.30133846402168274 0.0196078431372549
4.220948219299316 113.24767303466797 -0.31699904799461365 0.011764705882352941
4.88078498840332 112.95490264892578 -0.3127792179584503 0.01568627450980392
4.845244884490967 112.97869873046875 -0.0979534313082695 0.01568627450980392
4.837099552154541 112.99000549316406 0.10787258297204971 0.0196078431372549
4.831212043762207 113.00012969970703 0.3091908395290375 0.043137254901960784
0.8589804172515869 114.72506713867188 -0.36388856172561646 0.023529411764705882
2.442013740539551 114.06946563720703 1.060497522354126 0.7647058823529411
1.047144889831543 114.6412353515625 -0.352925568819046 0.01568627450980392
1.2705714702606201 114.54120635986328 -0.35291263461112976 0.0784313725490196
2.4145381450653076 114.09178924560547 1.3294100761413574 0.9725490196078431
1.4993685483932495 114.43909454345703 -0.3443586826324463 0.03137254901960784
2.414695978164673 114.0966567993164 1.4617657661437988 0.9803921568627451
1.7519450187683105 114.32636260986328 -0.3349078595638275 0.03137254901960784
2.4156033992767334 114.10113525390625 1.592615008354187 0.6666666666666666
2.0245819091796875 114.20475006103516 -0.32294735312461853 0.027450980392156862
12.038212776184082 109.79058837890625 1.5263092517852783 0.0196078431372549
2.346601963043213 114.06075286865234 -0.31836768984794617 0.050980392156862744
12.078736305236816 109.78654479980469 1.9043656587600708 0.023529411764705882
2.702169895172119 113.90188598632812 -0.3096296489238739 0.023529411764705882
3.1339643001556396 113.70848083496094 -0.31203320622444153 0.0196078431372549
3.6157686710357666 113.49287414550781 -0.309403657913208 0.023529411764705882
4.209540367126465 113.226806640625 -0.3156486749649048 0.01568627450980392
4.8314595222473145 112.94892120361328 -0.30095723271369934 0.01568627450980392
4.806361675262451 112.96803283691406 -0.08983927965164185 0.03137254901960784
6.581458568572998 112.1657943725586 -0.29151397943496704 0.027450980392156862
7.687081813812256 111.67169189453125 -0.2676149606704712 0.023529411764705882
2.4601337909698486 114.0561752319336 0.9218517541885376 0.984313725490196
0.8603004217147827 114.71095275878906 -0.36735793948173523 0.023529411764705882
2.4347591400146484 114.05332946777344 1.0610989332199097 0.9803921568627451
1.0450814962387085 114.62801361083984 -0.3543491065502167 0.01568627450980392
2.4080400466918945 114.07048797607422 1.197901964187622 0.984313725490196
1.2682324647903442 114.52726745605469 -0.35422688722610474 0.0784313725490196
2.4109442234039307 114.07408142089844 1.3296557664871216 0.9725490196078431
1.4885478019714355 114.42828369140625 -0.34132900834083557 0.03137254901960784
2.4147415161132812 114.0772933959961 1.4618452787399292 0.9803921568627451
1.745686411857605 114.31244659423828 -0.33438900113105774 0.027450980392156862
2.026312828063965 114.18605041503906 -0.32620418071746826 0.03137254901960784
11.950004577636719 109.77482604980469 1.5294064283370972 0.0196078431372549
2.3445773124694824 114.04259490966797 -0.3199343979358673 0.050980392156862744
11.986785888671875 109.77223205566406 1.90571928024292 0.023529411764705882
2.696277141571045 113.88419342041016 -0.3096742033958435 0.0196078431372549
4.92277193069458 112.96734619140625 2.0626919269561768 0.01568627450980392
3.122314929962158 113.69182586669922 -0.3100913465023041 0.0196078431372549
3.5999443531036377 113.47632598876953 -0.30632084608078003 0.023529411764705882
4.213791847229004 113.1987075805664 -0.31917598843574524 0.01568627450980392
4.794477939605713 112.93753051757812 -0.292625367641449 0.0392156862745098
4.785175323486328 112.94941711425781 -0.08625205606222153 0.03137254901960784
6.591517925262451 112.12609100341797 -0.2957105338573456 0.011764705882352941
7.676029682159424 111.63751220703125 -0.2671235501766205 0.023529411764705882
2.4528560638427734 114.03999328613281 0.9224550724029541 0.5254901960784314
0.8426375985145569 114.70586395263672 -0.35917726159095764 0.0196078431372549
2.4292545318603516 114.03638458251953 1.0614302158355713 0.9803921568627451
1.0493662357330322 114.61173248291016 -0.3594917356967926 0.01568627450980392
2.4098002910614014 114.05030059814453 1.1973868608474731 0.984313725490196
1.2642275094985962 114.51409912109375 -0.3546534776687622 0.08627450980392157
2.412722110748291 114.05387878417969 1.3293720483779907 0.9725490196078431
1.4924342632293701 114.4105224609375 -0.345921128988266 0.027450980392156862
2.4147167205810547 114.05790710449219 1.4619249105453491 0.9803921568627451
1.7360740900039673 114.30010986328125 -0.3322634696960449 0.023529411764705882
4.878303050994873 112.93699645996094 1.4803011417388916 0.3137254901960784
2.0129220485687256 114.17443084716797 -0.32260861992836 0.027450980392156862
2.339111804962158 114.0260238647461 -0.32006511092185974 0.047058823529411764
4.895729064941406 112.94353485107422 1.8692083358764648 0.011764705882352941
2.6886229515075684 113.8673095703125 -0.3090457022190094 0.0196078431372549
4.906452655792236 112.94587707519531 2.0634148120880127 0.011764705882352941
3.1260836124420166 113.66796875 -0.31382668018341064 0.0196078431372549
49.048133850097656 92.94940185546875 4.7469940185546875 0.2235294117647059
3.603128671646118 113.45094299316406 -0.30969128012657166 0.023529411764705882
4.205724716186523 113.17625427246094 -0.3189118206501007 0.011764705882352941
4.8172078132629395 112.89852905273438 -0.30118873715400696 0.01568627450980392
4.771013259887695 112.92761993408203 -0.08447633683681488 0.03137254901960784
4.829774379730225 112.9153823852539 0.30569931864738464 0.06274509803921569
4.826762676239014 112.92417907714844 0.5051613450050354 0.21568627450980393
0.8530471920967102 114.68659210205078 -0.36844924092292786 0.023529411764705882
2.426877975463867 114.01689147949219 1.061257243156433 0.9803921568627451
1.0484994649887085 114.5970687866211 -0.36182036995887756 0.01568627450980392
2.41107439994812 114.02919006347656 1.1969056129455566 0.984313725490196
1.25824773311615 114.50102233886719 -0.35416722297668457 0.08627450980392157
2.414013624191284 114.03275299072266 1.3291221857070923 0.9725490196078431
1.4812051057815552 114.39904022216797 -0.34286755323410034 0.03137254901960784
2.4123990535736084 114.03843688964844 1.4621672630310059 0.8549019607843137
1.7359907627105713 114.28231811523438 -0.3349343538284302 0.03137254901960784
4.87407922744751 112.90853881835938 1.4809026718139648 0.01568627450980392
2.0124876499176025 114.15569305419922 -0.32507458329200745 0.027450980392156862
4.869377613067627 112.91790771484375 1.6750150918960571 0.18823529411764706
2.3331902027130127 114.00858306884766 -0.32016444206237793 0.047058823529411764
2.683889627456665 113.847900390625 -0.30973246693611145 0.023529411764705882
3.1258645057678223 113.64466857910156 -0.3162629008293152 0.0196078431372549
46.83353042602539 93.75457000732422 4.632454872131348 0.20392156862745098
3.5970664024353027 113.4284896850586 -0.310089111328125 0.023529411764705882
4.195291519165039 113.1534423828125 -0.3180634379386902 0.01568627450980392
4.851438999176025 112.85226440429688 -0.31317299604415894 0.011764705882352941
4.7685418128967285 112.89878845214844 -0.08581490069627762 0.03137254901960784
6.5749430656433105 112.06134033203125 -0.2959212064743042 0.023529411764705882
7.6688032150268555 111.5599365234375 -0.26932215690612793 0.00784313725490196
4.811794281005859 112.90093994140625 0.5067163109779358 0.23529411764705882
0.8400641679763794 114.67931365966797 -0.36318475008010864 0.027450980392156862
2.4230473041534424 113.9991226196289 1.0613187551498413 0.9803921568627451
1.0383168458938599 114.5876693725586 -0.3585974872112274 0.01568627450980392
2.403674840927124 114.01314544677734 1.1975014209747314 0.984313725490196
1.252542495727539 114.4886474609375 -0.35370779037475586 0.08627450980392157
2.4048025608062744 114.01753997802734 1.3298943042755127 0.9725490196078431
1.4768091440200806 114.38518524169922 -0.3432285189628601 0.027450980392156862
2.4176583290100098 114.01648712158203 1.4618593454360962 0.25882352941176473
1.7328944206237793 114.26686096191406 -0.33602625131607056 0.027450980392156862
2.0023558139801025 114.1425552368164 -0.32300543785095215 0.027450980392156862
11.572043418884277 109.78012084960938 1.5409308671951294 0.058823529411764705
2.329296827316284 113.99122619628906 -0.32101550698280334 0.043137254901960784
4.855075836181641 112.90292358398438 1.8709267377853394 0.00784313725490196
2.6846156120300293 113.8270034790039 -0.3124767541885376 0.0196078431372549
4.87846565246582 112.89929962158203 2.0650691986083984 0.10980392156862745
3.124310255050659 113.62317657470703 -0.3181062638759613 0.0196078431372549
3.5931575298309326 113.40631866455078 -0.31111517548561096 0.023529411764705882
4.188816070556641 113.13020324707031 -0.3183441162109375 0.01568627450980392
4.854543209075928 112.82199096679688 -0.31626513600349426 0.01568627450980392
4.766562461853027 112.8712387084961 -0.08720212429761887 0.03137254901960784
6.5580034255981445 112.0339584350586 -0.29403138160705566 0.03529411764705882
7.664504051208496 111.5224380493164 -0.27027595043182373 0.027450980392156862
4.799147129058838 112.87823486328125 0.5079050660133362 0.2196078431372549
25.524864196777344 103.58009338378906 8.582845687866211 0.058823529411764705
0.8352084159851074 114.66886901855469 -0.3627972900867462 0.027450980392156862
2.4231581687927246 113.98055267333984 1.0608106851577759 0.8588235294117647
1.0331882238388062 114.5766372680664 -0.3581882119178772 0.01568627450980392
2.4020354747772217 113.99547576904297 1.1973973512649536 0.984313725490196
1.2487300634384155 114.4761962890625 -0.35416296124458313 0.08627450980392157
2.3977653980255127 114.00240325927734 1.3304558992385864 0.9725490196078431
1.4775961637496948 114.36968231201172 -0.3461548686027527 0.027450980392156862
1.721864938735962 114.25616455078125 -0.3331303298473358 0.027450980392156862
4.865355491638184 112.85639953613281 1.482039213180542 0.17647058823529413
2.007554769515991 114.12303161621094 -0.32781535387039185 0.03529411764705882
4.878787994384766 112.85733032226562 1.6761128902435303 0.00784313725490196
2.3274340629577637 113.97393798828125 -0.3226170837879181 0.043137254901960784
11.559760093688965 109.7480239868164 1.9105772972106934 0.027450980392156862
2.6738266944885254 113.8127212524414 -0.3105390667915344 0.023529411764705882
3.111175537109375 113.60842895507812 -0.31557801365852356 0.0196078431372549
49.01762771606445 92.37274932861328 4.776113033294678 0.2235294117647059
3.5931317806243896 113.38358306884766 -0.31335365772247314 0.023529411764705882
4.182822227478027 113.1081771850586 -0.31867024302482605 0.01568627450980392
4.856399059295654 112.79380798339844 -0.31890884041786194 0.01568627450980392
4.7598137855529785 112.84747314453125 -0.0872848853468895 0.03137254901960784
6.550579071044922 112.00405883789062 -0.29423150420188904 0.03137254901960784
7.660915374755859 111.4867172241211 -0.27129730582237244 0.023529411764705882
4.7977519035339355 112.851806640625 0.5071583390235901 0.2196078431372549
0.8313131928443909 114.65643310546875 -0.3633354902267456 0.027450980392156862
2.4366772174835205 113.95336151123047 1.0582283735275269 0.43529411764705883
1.0210611820220947 114.56745910644531 -0.35401609539985657 0.01568627450980392
2.4012930393218994 113.97515869140625 1.197137475013733 0.984313725490196
1.2458415031433105 114.46159362792969 -0.3554554879665375 0.08627450980392157
2.3988468647003174 113.98123931884766 1.330204963684082 0.9725490196078431
1.4646259546279907 114.35908508300781 -0.3422611653804779 0.03529411764705882
2.411679744720459 113.98009490966797 1.4624063968658447 0.9803921568627451
1.723252534866333 114.237548828125 -0.33660584688186646 0.03137254901960784
4.859024524688721 112.82877349853516 1.4827207326889038 0.08235294117647059
2.0035970211029053 114.10587310791016 -0.32876068353652954 0.03137254901960784
2.3162965774536133 113.95897674560547 -0.32056739926338196 0.03137254901960784
2.6722848415374756 113.79168701171875 -0.31257593631744385 0.027450980392156862
3.114137887954712 113.58344268798828 -0.3192748725414276 0.023529411764705882
3.5816664695739746 113.3636245727539 -0.3119979798793793 0.027450980392156862
4.179101467132568 113.08209228515625 -0.3199903666973114 0.01568627450980392
4.846440315246582 112.76800537109375 -0.3184795081615448 0.01568627450980392
24.680355072021484 103.64744567871094 5.518354892730713 0.07450980392156863
4.757037162780762 112.81859588623047 -0.08862511068582535 0.03137254901960784
6.54331111907959 111.9700927734375 -0.2947188913822174 0.03137254901960784
7.664382457733154 111.44312286376953 -0.2739831805229187 0.03137254901960784
4.789689540863037 112.82530212402344 0.5074498057365417 0.2196078431372549
0.8292309045791626 114.64384460449219 -0.36486709117889404 0.03137254901960784
1.0250848531723022 114.55110931396484 -0.35915833711624146 0.01568627450980392
2.400895118713379 113.9557113647461 1.1968446969985962 0.984313725490196
1.241619348526001 114.4484634399414 -0.3558867573738098 0.08627450980392157
2.394874334335327 113.96350860595703 1.3304469585418701 0.9725490196078431
1.4568475484848022 114.34687042236328 -0.340933620929718 0.03529411764705882
2.3986873626708984 113.96662139892578 1.463386058807373 0.6
1.7101435661315918 114.22695922851562 -0.3328821063041687 0.027450980392156862
4.847807884216309 112.80504608154297 1.4835988283157349 0.06666666666666667
1.9983041286468506 114.09034729003906 -0.32897675037384033 0.03529411764705882
11.353826522827148 109.71978759765625 1.5489835739135742 0.011764705882352941
2.30888032913208 113.94328308105469 -0.3199867904186249 0.03529411764705882
4.850656986236572 112.81812286376953 1.8737353086471558 0.011764705882352941
2.6694157123565674 113.77239990234375 -0.31397396326065063 0.023529411764705882
3.1072447299957275 113.56441497802734 -0.31923139095306396 0.0196078431372549
46.57807540893555 93.11776733398438 4.657431125640869 0.20392156862745098
3.575812339782715 113.34229278564453 -0.31244099140167236 0.023529411764705882
4.1810455322265625 113.0546646118164 -0.3229770064353943 0.011764705882352941
4.828300476074219 112.74775695800781 -0.31562283635139465 0.01568627450980392
24.35936164855957 103.69304656982422 5.483684539794922 0.07058823529411765
4.753014087677002 112.7918472290039 -0.0895630344748497 0.03137254901960784
6.53668212890625 111.93773651123047 -0.2952674627304077 0.03529411764705882
7.663213729858398 111.40382385253906 -0.2756568491458893 0.043137254901960784
4.785712718963623 112.79840087890625 0.5070639848709106 0.2196078431372549
0.8255409002304077 114.63204193115234 -0.3654293715953827 0.03137254901960784
2.4231741428375244 113.9202880859375 1.0591524839401245 0.9450980392156862
1.0290443897247314 114.53471374511719 -0.3642997741699219 0.01568627450980392
2.398635149002075 113.9371109008789 1.1967731714248657 0.984313725490196
1.2341454029083252 114.43695068359375 -0.354544073343277 0.08627450980392157
2.3998148441314697 113.94145965576172 1.3298135995864868 0.9725490196078431
1.4522784948349 114.33306884765625 -0.3412989675998688 0.03529411764705882
4.822693824768066 112.78079986572266 1.2904627323150635 0.30980392156862746
1.7084949016571045 114.21073150634766 -0.33478108048439026 0.03137254901960784
4.838318347930908 112.78048706054688 1.4843926429748535 0.06666666666666667
1.9913030862808228 114.07565307617188 -0.32843369245529175 0.03529411764705882
11.2606782913208 109.71025085449219 1.5520386695861816 0.0196078431372549
2.3064358234405518 113.92513275146484 -0.3215586841106415 0.03137254901960784
11.28232479095459 109.7132797241211 1.9143190383911133 0.027450980392156862
2.6647891998291016 113.75393676757812 -0.31469962000846863 0.023529411764705882
3.10369610786438 113.54373168945312 -0.320447713136673 0.0196078431372549
3.5681705474853516 113.32180786132812 -0.31230032444000244 0.023529411764705882
4.175970554351807 113.03058624267578 -0.3238016664981842 0.01568627450980392
24.114299774169922 103.70484924316406 5.459140777587891 0.07058823529411765
4.748897552490234 112.76509094238281 -0.09050215035676956 0.03137254901960784
4.828882217407227 112.73368072509766 0.09512848407030106 0.0196078431372549
7.654824256896973 111.367919921875 -0.2758936285972595 0.043137254901960784
4.78164005279541 112.771484375 0.5066776871681213 0.2196078431372549
