-3.305612325668335 118.54314422607422 0.6000089049339294 0.011764705882352941
-5.782702922821045 126.82373046875 0.08224237710237503 1.0
-3.359715461730957 118.7237777709961 0.5587748289108276 0.00784313725490196
-5.804424285888672 126.89825439453125 0.3280806839466095 0.011764705882352941
-3.9492998123168945 120.68785858154297 -0.4593018889427185 0.03137254901960784
-5.819905757904053 126.95191955566406 0.5765348076820374 0.054901960784313725
-4.023124694824219 120.93474578857422 -0.4612961411476135 0.043137254901960784
-4.103828430175781 121.20464324951172 -0.4627518057823181 0.050980392156862744
-4.1931915283203125 121.50350952148438 -0.4635767340660095 0.027450980392156862
-12.60141372680664 149.6300506591797 0.2660980224609375 0.39215686274509803
-4.292165756225586 121.83451843261719 -0.4650270640850067 0.0196078431372549
-4.396165370941162 122.1823959350586 -0.45741429924964905 0.1411764705882353
-20.01323699951172 174.43112182617188 1.9090301990509033 0.09411764705882353
-4.532808780670166 122.63927459716797 -0.47324642539024353 0.01568627450980392
-20.70376968383789 176.75173950195312 3.371049642562866 0.24705882352941178
-4.670907020568848 123.10116577148438 -0.4697745442390442 0.011764705882352941
-4.8262810707092285 123.62085723876953 -0.46289727091789246 0.00784313725490196
-5.017937183380127 124.26182556152344 -0.46574023365974426 0.011764705882352941
-5.227738380432129 124.96357727050781 -0.45560094714164734 0.01568627450980392
-5.495450973510742 125.85890197753906 -0.4594208598136902 0.011764705882352941
-3.202923059463501 118.22006225585938 0.68743497133255 1.0
-5.782627582550049 126.93923950195312 -0.45680713653564453 0.00784313725490196
-3.244607925415039 118.36084747314453 0.6534774303436279 0.011764705882352941
-6.166298866271973 128.2373046875 -0.44848933815956116 0.011764705882352941
-3.2981929779052734 118.54175567626953 0.6020308136940002 0.011764705882352941
-5.744592189788818 126.81446838378906 0.08539179712533951 1.0
-5.507317066192627 125.9845962524414 -3.684807777404785 0.00784313725490196
-5.771153450012207 126.90607452392578 0.32828444242477417 0.011764705882352941
-3.9349746704101562 120.68843078613281 -0.4574577808380127 0.03529411764705882
-5.785934925079346 126.95787811279297 0.5769221186637878 0.054901960784313725
-4.010047435760498 120.94236755371094 -0.4631181061267853 0.0392156862745098
-4.090943336486816 121.21602630615234 -0.4661996066570282 0.054901960784313725
-4.17834997177124 121.51173400878906 -0.4652339518070221 0.023529411764705882
-4.277869701385498 121.84839630126953 -0.46890684962272644 0.0196078431372549
-4.378683567047119 122.18953704833984 -0.45817962288856506 0.11372549019607843
-20.53447151184082 176.86337280273438 1.9117419719696045 0.11372549019607843
-4.513894557952881 122.64685821533203 -0.47397077083587646 0.01568627450980392
-20.548959732055664 176.92291259765625 3.3735692501068115 0.24705882352941178
-4.649470806121826 123.10556030273438 -0.4691828191280365 0.011764705882352941
-4.804837226867676 123.63121795654297 -0.4641343355178833 0.00784313725490196
-4.996672630310059 124.28018188476562 -0.4690874218940735 0.01568627450980392
-20.2464599609375 175.93060302734375 7.688137531280518 0.13725490196078433
-5.199345588684082 124.96595764160156 -0.4541475474834442 0.01568627450980392
-5.471975326538086 125.88821411132812 -0.4645349681377411 0.011764705882352941
-3.1979806423187256 118.22325897216797 0.6863266229629517 0.00784313725490196
-5.7518744468688965 126.95643615722656 -0.4585283100605011 0.011764705882352941
-3.235879898071289 118.35279083251953 0.6598116159439087 0.011764705882352941
-6.129824638366699 128.2500762939453 -0.4489331841468811 0.01568627450980392
-3.292726755142212 118.54695129394531 0.5999814867973328 0.011764705882352941
-5.704349040985107 126.79749298095703 0.08983486145734787 0.0
-5.4734787940979 125.9818115234375 -3.678025722503662 0.011764705882352941
-5.740082740783691 126.92140197753906 0.3273896872997284 0.01568627450980392
-3.9231436252593994 120.69743347167969 -0.4602953791618347 0.050980392156862744
-5.748607158660889 126.95227813720703 0.5786932110786438 0.054901960784313725
-3.996428966522217 120.94823455810547 -0.4640425443649292 0.03529411764705882
-4.077488422393799 121.22563171386719 -0.46879133582115173 0.054901960784313725
-4.161412239074707 121.51290130615234 -0.4636443853378296 0.023529411764705882
-4.260902404785156 121.85338592529297 -0.46894165873527527 0.0196078431372549
-4.359598159790039 122.1912612915039 -0.45676562190055847 0.09411764705882353
-4.49389123916626 122.6507797241211 -0.47332924604415894 0.01568627450980392
-20.393781661987305 177.0956268310547 3.376164674758911 0.24705882352941178
-4.630154132843018 123.1171646118164 -0.4711392819881439 0.011764705882352941
-4.781198978424072 123.63418579101562 -0.46299320459365845 0.00784313725490196
-4.969907760620117 124.280029296875 -0.46694228053092957 0.011764705882352941
-20.25221061706543 176.64073181152344 7.75233268737793 0.1411764705882353
-5.173678874969482 124.97753143310547 -0.4552105963230133 0.01568627450980392
-5.440682888031006 125.89132690429688 -0.4632187485694885 0.011764705882352941
-3.192256212234497 118.22492218017578 0.6863157749176025 0.00784313725490196
-5.715953350067139 126.9627914428711 -0.4577677845954895 0.011764705882352941
-3.225943088531494 118.34153747558594 0.6682616472244263 0.00784313725490196
-6.08797550201416 128.25198364257812 -0.4471682906150818 0.011764705882352941
-3.284959077835083 118.54562377929688 0.6020046472549438 0.011764705882352941
-5.670121192932129 126.80743408203125 0.08976985514163971 0.0
-3.335841178894043 118.72169494628906 0.56361985206604 0.00784313725490196
-3.90954327583313 120.7032241821289 -0.4612588584423065 0.050980392156862744
-5.712284088134766 126.95661926269531 0.5793167948722839 0.058823529411764705
-3.9815056324005127 120.95256805419922 -0.4640708863735199 0.0392156862745098
-4.058627605438232 121.21981048583984 -0.4636991322040558 0.050980392156862744
-6.1754279136657715 128.56399536132812 0.9737560749053955 1.0
-4.1466498374938965 121.5248031616211 -0.46692100167274475 0.027450980392156862
-4.241438865661621 121.85326385498047 -0.46667012572288513 0.0196078431372549
-4.342628002166748 122.20394897460938 -0.45970359444618225 0.08235294117647059
-20.2237491607666 177.24998474121094 1.9113264083862305 0.11372549019607843
-4.472801208496094 122.65494537353516 -0.4726865291595459 0.01568627450980392
-4.606987953186035 123.11994171142578 -0.4699054956436157 0.011764705882352941
-4.758965492248535 123.6466064453125 -0.46481963992118835 0.00784313725490196
-4.947146892547607 124.29865264892578 -0.4702848494052887 0.01568627450980392
-5.14002799987793 124.96715545654297 -0.45022350549697876 0.011764705882352941
-5.409917831420898 125.90228271484375 -0.4637373089790344 0.011764705882352941
-3.1868274211883545 118.22647857666016 0.6863062977790833 0.00784313725490196
-5.683465480804443 126.97415161132812 -0.4582386910915375 0.00784313725490196
-3.2224812507629395 118.35136413574219 0.6629628539085388 0.011764705882352941
-6.051443576812744 128.26451110839844 -0.4476008117198944 0.011764705882352941
-3.278985023498535 118.54912567138672 0.6009754538536072 0.011764705882352941
-5.633325576782227 126.80155944824219 0.0922902449965477 0.0
-3.3264355659484863 118.71531677246094 0.5684967637062073 0.00784313725490196
-5.677553653717041 126.9580078125 0.3247837424278259 0.3803921568627451
-3.8966593742370605 120.70875549316406 -0.462218701839447 0.050980392156862744
-5.675060272216797 126.95075988769531 0.5810982584953308 0.058823529411764705
-3.967844247817993 120.95834350585938 -0.4649910628795624 0.03529411764705882
-4.044132709503174 121.2258529663086 -0.4645792245864868 0.050980392156862744
-6.122245788574219 128.5211181640625 0.9775272607803345 1.0
-4.128689289093018 121.52235412597656 -0.46370404958724976 0.023529411764705882
-4.2254719734191895 121.86168670654297 -0.4682368338108063 0.0196078431372549
-4.326082706451416 122.21451568603516 -0.4619116187095642 0.06666666666666667
-4.453301429748535 122.66053771972656 -0.47272056341171265 0.01568627450980392
-4.586028099060059 123.1259536743164 -0.4699420630931854 0.011764705882352941
-4.735828399658203 123.65126037597656 -0.4642653465270996 0.00784313725490196
-4.92037296295166 124.29833221435547 -0.46813255548477173 0.011764705882352941
-5.1180548667907715 124.9915771484375 -0.45480701327323914 0.01568627450980392
-5.3818254470825195 125.91641998291016 -0.4651660919189453 0.011764705882352941
-3.1804840564727783 118.22480010986328 0.6884918808937073 0.00784313725490196
-5.650409698486328 126.9835205078125 -0.4582914113998413 0.00784313725490196
-3.216191053390503 118.35137939453125 0.6640114188194275 0.011764705882352941
-6.012203216552734 128.2674560546875 -0.44618842005729675 0.011764705882352941
-3.2715904712677 118.54764556884766 0.6030012369155884 0.011764705882352941
-5.59928035736084 126.8050537109375 0.09320511668920517 0.0
-3.321349859237671 118.72401428222656 0.5645743608474731 0.011764705882352941
-3.882793426513672 120.71084594726562 -0.4613035321235657 0.054901960784313725
-5.6395263671875 126.95051574707031 0.5821950435638428 0.050980392156862744
-3.953674793243408 120.96236419677734 -0.46501368284225464 0.043137254901960784
-4.02961540222168 121.23184967041016 -0.46545684337615967 0.050980392156862744
-6.076952934265137 128.5049285888672 0.9793858528137207 1.0
-4.1142401695251465 121.53215026855469 -0.46616312861442566 0.023529411764705882
-4.207963943481445 121.86473083496094 -0.4674953818321228 0.0196078431372549
-4.306450366973877 122.21427154541016 -0.4597640037536621 0.06666666666666667
-4.434297561645508 122.66787719726562 -0.4734334349632263 0.01568627450980392
-4.56453800201416 123.13008117675781 -0.46933770179748535 0.011764705882352941
-4.714760780334473 123.6631851196289 -0.4660826623439789 0.00784313725490196
-4.895716667175293 124.3053207397461 -0.4681718647480011 0.011764705882352941
-5.091224193572998 124.99918365478516 -0.45484980940818787 0.01568627450980392
-5.352089881896973 125.92485046386719 -0.46521350741386414 0.011764705882352941
-3.1732563972473145 118.21987915039062 0.6928727030754089 0.00784313725490196
-5.6141676902771 126.98147583007812 -0.4558587670326233 0.00784313725490196
-3.20944881439209 118.34974670410156 0.6661184430122375 0.011764705882352941
-5.97772216796875 128.28732299804688 -0.4480815827846527 0.011764705882352941
-3.2642107009887695 118.54613494873047 0.6050280332565308 0.011764705882352941
-5.5594096183776855 126.78752899169922 0.09766831994056702 0.0
-3.3148059844970703 118.7276611328125 0.5635862946510315 0.011764705882352941
-5.608536720275879 126.96510314941406 0.3263391852378845 0.4117647058823529
-3.8703501224517822 120.71800231933594 -0.4631964862346649 0.054901960784313725
-5.6050848960876465 126.95397186279297 0.5828372240066528 0.027450980392156862
-3.9385294914245605 120.962890625 -0.46324318647384644 0.043137254901960784
-4.013612747192383 121.23257446289062 -0.46377089619636536 0.050980392156862744
-6.0248308181762695 128.4635772705078 0.9830320477485657 1.0
-4.098267078399658 121.53662109375 -0.4661862254142761 0.027450980392156862
-4.190946102142334 121.86949920654297 -0.46751999855041504 0.0196078431372549
-19.807945251464844 177.96694946289062 0.41976574063301086 0.24705882352941178
-4.289337635040283 122.22293090820312 -0.4612412750720978 0.06666666666666667
-17.622766494750977 170.1255340576172 1.901122808456421 0.10196078431372549
-4.417282581329346 122.68241119384766 -0.4768703579902649 0.01568627450980392
-4.543546676635742 123.13595581054688 -0.469368040561676 0.011764705882352941
-4.691070079803467 123.66585540771484 -0.46492791175842285 0.00784313725490196
-4.870518684387207 124.31038665771484 -0.4676584005355835 0.011764705882352941
-5.064365863800049 125.00670623779297 -0.45488864183425903 0.01568627450980392
-5.322323322296143 125.93318939208984 -0.46525657176971436 0.011764705882352941
-3.1647322177886963 118.21009063720703 0.7005457878112793 0.00784313725490196
-5.58160924911499 126.99252319335938 -0.4563150107860565 0.011764705882352941
-3.2031748294830322 118.34971618652344 0.6671686172485352 0.011764705882352941
-5.937414646148682 128.28623962402344 -0.4459223449230194 0.011764705882352941
-3.2600512504577637 118.55622100830078 0.5999292731285095 0.011764705882352941
-5.525445938110352 126.79077911376953 0.09859280288219452 0.0
-3.3063912391662598 118.72455596923828 0.566510796546936 0.011764705882352941
-5.5750932693481445 126.97230529785156 0.32657235860824585 0.4117647058823529
-3.8564658164978027 120.72001647949219 -0.462276816368103 0.050980392156862744
-5.5690741539001465 126.95156860351562 0.584173858165741 0.027450980392156862
-3.9252965450286865 120.97026062011719 -0.4650525748729706 0.043137254901960784
-4.000504970550537 121.24370574951172 -0.4672054946422577 0.050980392156862744
-5.977771759033203 128.43934631347656 0.9854506254196167 1.0
-4.082767486572266 121.54280853271484 -0.46701809763908386 0.027450980392156862
-4.173425674438477 121.8724365234375 -0.46677350997924805 0.0196078431372549
-4.269713878631592 122.22256469726562 -0.4590882360935211 0.06666666666666667
-4.397698879241943 122.68782806396484 -0.4768957793712616 0.01568627450980392
-4.522036552429199 123.13994598388672 -0.46875742077827454 0.011764705882352941
-4.668907642364502 123.67396545410156 -0.4655510485172272 0.00784313725490196
-4.847356796264648 124.3227767944336 -0.4693373441696167 0.01568627450980392
-5.039029121398926 125.01974487304688 -0.4564359188079834 0.01568627450980392
-5.295118808746338 125.95081329345703 -0.4675906002521515 0.011764705882352941
-3.164186954498291 118.22930908203125 0.6884707808494568 0.00784313725490196
-5.549010276794434 127.00345611572266 -0.45676639676094055 0.011764705882352941
-3.196014404296875 118.34639739990234 0.6703351736068726 0.011764705882352941
-5.8992109298706055 128.29261779785156 -0.4452292025089264 0.011764705882352941
-3.2504050731658936 118.5463638305664 0.6070483326911926 0.011764705882352941
-5.497703552246094 126.81678009033203 0.09565611183643341 0.0
-3.300753355026245 118.73152923583984 0.5635691285133362 0.011764705882352941
-5.536956787109375 126.96219635009766 0.32929378747940063 0.40784313725490196
-3.8435096740722656 120.72538757324219 -0.4632292687892914 0.0392156862745098
-5.530502796173096 126.939453125 0.5866646766662598 0.0392156862745098
-3.911559820175171 120.97586822509766 -0.4659644067287445 0.0392156862745098
-3.985914707183838 121.24956512451172 -0.4680764973163605 0.050980392156862744
-5.934038162231445 128.4264678955078 0.9870525598526001 1.0
-4.066283226013184 121.54541778564453 -0.4662253260612488 0.027450980392156862
-12.547551155090332 152.76780700683594 0.12832801043987274 0.2823529411764706
-4.157356262207031 121.88065338134766 -0.4683302044868469 0.0196078431372549
-4.253533840179443 122.23471069335938 -0.46201106905937195 0.058823529411764705
-4.375630855560303 122.68411254882812 -0.4735095202922821 0.01568627450980392
-4.503505229949951 123.15483093261719 -0.47197094559669495 0.011764705882352941
-4.645209789276123 123.6764907836914 -0.4643895924091339 0.00784313725490196
-4.825148105621338 124.33882141113281 -0.472110390663147 0.01568627450980392
-5.013125896453857 125.03083801269531 -0.45747506618499756 0.01568627450980392
-5.264254093170166 125.95521545410156 -0.4667067527770996 0.011764705882352941
-3.154970645904541 118.21794128417969 0.6972424387931824 1.0
-5.5135087966918945 127.01101684570312 -0.45638781785964966 0.011764705882352941
-3.188997983932495 118.34477233886719 0.6724446415901184 0.011764705882352941
-5.860454559326172 128.30511474609375 -0.44563624262809753 0.011764705882352941
-3.2404708862304688 118.53656005859375 0.6141682267189026 0.011764705882352941
-5.456760406494141 126.80125427246094 0.09981033951044083 0.0
-3.2915151119232178 118.72679138183594 0.567473292350769 0.011764705882352941
-5.499648094177246 126.96200561523438 0.3306388556957245 0.2980392156862745
-3.827031373977661 120.7206802368164 -0.4585593640804291 0.03137254901960784
-5.492270469665527 126.93537139892578 0.5882394909858704 0.054901960784313725
-3.89654278755188 120.97992706298828 -0.46597933769226074 0.043137254901960784
-3.96858286857605 121.24862670898438 -0.4655311703681946 0.050980392156862744
-5.890403747558594 128.42172241210938 0.9881098866462708 1.0
-4.050326824188232 121.55351257324219 -0.4678644835948944 0.023529411764705882
-4.138861179351807 121.88373565673828 -0.46757954359054565 0.0196078431372549
-4.234344482421875 122.2398910522461 -0.46203017234802246 0.06666666666666667
-4.354950428009033 122.689697265625 -0.4735300838947296 0.01568627450980392
-4.48077392578125 123.15900421142578 -0.47135522961616516 0.011764705882352941
-4.621242046356201 123.68295288085938 -0.46441343426704407 0.00784313725490196
-4.795992851257324 124.3347396850586 -0.46884286403656006 0.011764705882352941
-4.984168529510498 125.0366439819336 -0.4569992125034332 0.01568627450980392
-5.226678848266602 125.941162109375 -0.46122902631759644 0.011764705882352941
-3.153853416442871 118.23554229736328 0.6862661242485046 1.0
-5.479336738586426 127.01606750488281 -0.4555889368057251 0.011764705882352941
-3.1840620040893555 118.34960174560547 0.6703241467475891 0.011764705882352941
-5.8191962242126465 128.29981994628906 -0.4427243173122406 0.011764705882352941
-3.2314069271087646 118.52828979492188 0.6202712655067444 0.011764705882352941
-5.401583194732666 126.72402954101562 0.11428128182888031 0.0
-3.2836008071899414 118.72528839111328 0.5694229602813721 0.011764705882352941
-5.46674108505249 126.97077178955078 0.3306111693382263 0.39215686274509803
-3.8145153522491455 120.72767639160156 -0.46044427156448364 0.03137254901960784
-5.459482192993164 126.94410705566406 0.5882118940353394 0.058823529411764705
-3.8827641010284424 120.98544311523438 -0.46688684821128845 0.0392156862745098
-3.9530391693115234 121.25089263916016 -0.4646901488304138 0.050980392156862744
-5.850961685180664 128.42396545410156 0.9886267185211182 1.0
-4.033351898193359 121.55425262451172 -0.46625563502311707 0.023529411764705882
-4.122259616851807 121.89006805419922 -0.4683625102043152 0.0196078431372549
-4.21758508682251 122.2501449584961 -0.4642220437526703 0.06666666666666667
-4.338716506958008 122.7076416015625 -0.4783187508583069 0.01568627450980392
-4.457752704620361 123.15729522705078 -0.46882134675979614 0.011764705882352941
-4.600475788116455 123.69639587402344 -0.4668075144290924 0.00784313725490196
-4.7717156410217285 124.34319305419922 -0.46941259503364563 0.01568627450980392
-4.957692623138428 125.04570007324219 -0.4575260877609253 0.01568627450980392
-5.203347206115723 125.97356414794922 -0.46722230315208435 0.011764705882352941
-3.1428866386413574 118.21595001220703 0.70052570104599 1.0
-5.447141170501709 127.0285873413086 -0.456438809633255 0.011764705882352941
-3.1773808002471924 118.34784698486328 0.6724357604980469 0.011764705882352941
-5.782976150512695 128.31341552734375 -0.44348588585853577 0.011764705882352941
-3.2271969318389893 118.53829956054688 0.6151763796806335 0.011764705882352941
-5.386870861053467 126.7993392944336 0.10298223793506622 0.0
-3.278794527053833 118.7355728149414 0.5645288228988647 0.011764705882352941
-5.431300640106201 126.96985626220703 0.3319680690765381 0.054901960784313725
-3.8001763820648193 120.72779083251953 -0.45857998728752136 0.043137254901960784
-5.426164627075195 126.95081329345703 0.5884189605712891 0.06274509803921569
-3.86669921875 120.9822769165039 -0.46331462264060974 0.047058823529411764
-3.9411568641662598 121.2671127319336 -0.470676988363266 0.054901960784313725
-5.810527801513672 128.42222595214844 0.9894232749938965 1.0
-4.018237590789795 121.56200408935547 -0.46788913011550903 0.027450980392156862
-4.1042304039001465 121.8909912109375 -0.46683719754219055 0.0196078431372549
-4.198889255523682 122.25313568115234 -0.46350929141044617 0.058823529411764705
-4.319530010223389 122.71463012695312 -0.47901424765586853 0.01568627450980392
-4.436200141906738 123.16100311279297 -0.4681980013847351 0.011764705882352941
-4.576744079589844 123.69868469238281 -0.46563592553138733 0.00784313725490196
-4.744485855102539 124.34041595458984 -0.4666849970817566 0.011764705882352941
-4.931182384490967 125.05467987060547 -0.458048939704895 0.01568627450980392
-5.17244815826416 125.97766876220703 -0.4663250148296356 0.011764705882352941
-3.1391611099243164 118.22383117675781 0.6961339712142944 1.0
-5.416845321655273 127.048583984375 -0.45893770456314087 0.011764705882352941
-3.171139717102051 118.34771728515625 0.6734902262687683 0.011764705882352941
-5.746204853057861 128.3249969482422 -0.44387421011924744 0.00784313725490196
-3.219482898712158 118.53496551513672 0.6182271242141724 0.011764705882352941
-5.350491523742676 126.79246520996094 0.10554224252700806 0.0
-3.269563913345337 118.72895812988281 0.5694142580032349 0.011764705882352941
-5.39440393447876 126.96306610107422 0.3341574966907501 0.0196078431372549
-3.788939952850342 120.73983764648438 -0.4632714092731476 0.050980392156862744
-5.391336917877197 126.95165252685547 0.5893205404281616 0.06666666666666667
-3.853794813156128 120.99117279052734 -0.4660090208053589 0.050980392156862744
-3.9251110553741455 121.26753997802734 -0.46897754073143005 0.050980392156862744
-5.7666401863098145 128.40682983398438 0.9911850690841675 1.0
-4.002170562744141 121.56617736816406 -0.4678979218006134 0.023529411764705882
-4.089900493621826 121.90615844726562 -0.4714582860469818 0.0196078431372549
-4.18158483505249 122.26148223876953 -0.4649701416492462 0.050980392156862744
-4.297491550445557 122.71063995361328 -0.4756161570549011 0.01568627450980392
-4.416060447692871 123.17015075683594 -0.46948540210723877 0.011764705882352941
-4.553491115570068 123.70275115966797 -0.46505457162857056 0.00784313725490196
-4.7220988273620605 124.35616302490234 -0.4694433808326721 0.01568627450980392
-4.904149532318115 125.06169891357422 -0.4580637216567993 0.01568627450980392
-5.143975734710693 125.99109649658203 -0.4677185118198395 0.011764705882352941
-3.134150981903076 118.22683715820312 0.6950346231460571 1.0
-5.382108211517334 127.05142974853516 -0.45771071314811707 0.011764705882352941
-3.164905309677124 118.34756469726562 0.6745457649230957 0.011764705882352941
-5.705514907836914 128.32122802734375 -0.4413136839866638 0.011764705882352941
-3.2037179470062256 118.49990844726562 0.6406226754188538 0.011764705882352941
-5.317598342895508 126.79886627197266 0.10585140436887741 0.0
-3.2599520683288574 118.72061157226562 0.5752787590026855 0.011764705882352941
-5.3448686599731445 126.90623474121094 0.34352660179138184 0.011764705882352941
-3.77240252494812 120.73130798339844 -0.4567190706729889 0.043137254901960784
-5.355556488037109 126.94851684570312 0.5906867980957031 0.07058823529411765
-3.8395228385925293 120.99482727050781 -0.46601471304893494 0.050980392156862744
-3.9135444164276123 121.28544616699219 -0.47581401467323303 0.06666666666666667
-5.727319240570068 128.40866088867188 0.9917185306549072 1.0
-3.9869964122772217 121.57384490966797 -0.4695267081260681 0.027450980392156862
-4.070931911468506 121.90339660644531 -0.468390554189682 0.023529411764705882
-17.83445930480957 175.94374084472656 0.4732493758201599 0.24705882352941178
-4.16102409362793 122.25713348388672 -0.4613499045372009 0.047058823529411764
-4.278284549713135 122.7175064086914 -0.4763058125972748 0.01568627450980392
-4.396819114685059 123.18290710449219 -0.4720454514026642 0.01568627450980392
-4.531177997589111 123.71044158935547 -0.46565744280815125 0.00784313725490196
-4.694413185119629 124.35134887695312 -0.4661596119403839 0.011764705882352941
-4.877099990844727 125.06863403320312 -0.4580744802951813 0.01568627450980392
-5.115448474884033 126.00444030761719 -0.46910789608955383 0.011764705882352941
-3.1307566165924072 118.23632049560547 0.6895473599433899 1.0
-5.347375392913818 127.05416107177734 -0.4564785957336426 0.011764705882352941
-3.1590898036956787 118.34903717041016 0.6745442748069763 0.011764705882352941
-5.669186592102051 128.33447265625 -0.4420587718486786 0.011764705882352941
-3.1995186805725098 118.50984954833984 0.6355306506156921 0.011764705882352941
-5.283723831176758 126.80133056640625 0.10680980235338211 0.0
-3.2555043697357178 118.73253631591797 0.5694096684455872 0.011764705882352941
-5.2995781898498535 126.86457061767578 0.3506929576396942 0.011764705882352941
-3.7611000537872314 120.74327850341797 -0.46140652894973755 0.050980392156862744
-5.320300579071045 126.94718933105469 0.5918280482292175 0.08235294117647059
-3.8274176120758057 121.00711822509766 -0.4704957604408264 0.054901960784313725
-3.8992269039154053 121.29280090332031 -0.4775252938270569 0.0784313725490196
-5.684605598449707 128.39683532714844 0.9932172894477844 1.0
-3.9713380336761475 121.5796890258789 -0.4703421890735626 0.027450980392156862
-4.055593967437744 121.9148941040039 -0.4714694321155548 0.027450980392156862
-4.143229961395264 122.26355743408203 -0.4620799422264099 0.043137254901960784
-4.259505271911621 122.72613525390625 -0.4776741564273834 0.01568627450980392
-4.372889041900635 123.17723083496094 -0.4682232439517975 0.01568627450980392
-4.511624813079834 123.72917938232422 -0.4698195457458496 0.00784313725490196
-4.673339366912842 124.37255096435547 -0.47055724263191223 0.01568627450980392
-4.849079608917236 125.07173156738281 -0.45707303285598755 0.01568627450980392
-5.078313827514648 125.98371124267578 -0.46222880482673645 0.011764705882352941
-3.1248908042907715 118.23606872558594 0.6906440854072571 1.0
-5.312186241149902 127.05487823486328 -0.4548283517360687 0.011764705882352941
-3.154496669769287 118.35543060302734 0.671370267868042 0.011764705882352941
-5.632811069488525 128.3476104736328 -0.4427986741065979 0.00784313725490196
-3.192774772644043 118.50975799560547 0.6365479826927185 0.011764705882352941
-5.2531914710998535 126.81708526611328 0.10551776736974716 1.0
-3.2459466457366943 118.72413635253906 0.575276255607605 0.011764705882352941
-5.27413272857666 126.90155029296875 0.3465503454208374 0.00784313725490196
-3.7471821308135986 120.74493408203125 -0.46047112345695496 0.047058823529411764
-5.290824890136719 126.96887969970703 0.5902153253555298 0.13333333333333333
-3.8105123043060303 121.00027465820312 -0.465124249458313 0.047058823529411764
-3.884442090988159 121.29835510253906 -0.47838062047958374 0.058823529411764705
-5.6194281578063965 128.2938232421875 1.0011650323867798 1.0
-3.9543378353118896 121.58016967773438 -0.4687212407588959 0.023529411764705882
-4.038421630859375 121.91918182373047 -0.47147122025489807 0.027450980392156862
-17.85805320739746 177.638671875 0.43659234046936035 0.24705882352941178
-4.125412940979004 122.26992797851562 -0.462807297706604 0.050980392156862744
-4.238880157470703 122.72740936279297 -0.4763127863407135 0.01568627450980392
-4.352666854858398 123.18618774414062 -0.4695013463497162 0.01568627450980392
-4.485078811645508 123.72006225585938 -0.46507173776626587 0.00784313725490196
-4.648451805114746 124.3787612915039 -0.47055983543395996 0.01568627450980392
-4.822464942932129 125.08036804199219 -0.45758000016212463 0.01568627450980392
-5.0493059158325195 125.9949722290039 -0.4631502330303192 0.011764705882352941
-3.1162502765655518 118.22441864013672 0.6994217038154602 1.0
-5.277949333190918 127.05928039550781 -0.45399996638298035 0.011764705882352941
-3.14543080329895 118.34368133544922 0.6798328161239624 0.00784313725490196
-5.594513416290283 128.35299682617188 -0.44206106662750244 0.011764705882352941
-3.1868550777435303 118.51299285888672 0.6355302333831787 0.011764705882352941
-5.211327075958252 126.7867431640625 0.1119629368185997 1.0
-3.2372782230377197 118.71908569335938 0.5791878700256348 0.011764705882352941
-5.229649066925049 126.86151123046875 0.3534505367279053 1.0
-3.73242449760437 120.74311065673828 -0.45766010880470276 0.0392156862745098
-5.255100250244141 126.96540832519531 0.5915961265563965 0.1411764705882353
-3.7966370582580566 121.00553894042969 -0.4660191833972931 0.043137254901960784
-5.867613315582275 129.4685821533203 0.6055496335029602 1.0
-3.8696341514587402 121.30386352539062 -0.4792337417602539 0.07058823529411765
-5.606144428253174 128.39984130859375 0.9943118095397949 1.0
-3.9403886795043945 121.593017578125 -0.47277700901031494 0.027450980392156862
-4.022552013397217 121.92879486083984 -0.47377628087997437 0.023529411764705882
-4.107570171356201 122.27623748779297 -0.4635322690010071 0.043137254901960784
-4.221837043762207 122.74322509765625 -0.480402410030365 0.01568627450980392
-4.332855224609375 123.19692993164062 -0.4714142084121704 0.01568627450980392
-4.462240219116211 123.7256851196289 -0.46507078409194946 0.00784313725490196
-4.621716499328613 124.37742614746094 -0.4683632254600525 0.01568627450980392
-4.794436931610107 125.08329010009766 -0.456570565700531 0.01568627450980392
-5.0197882652282715 126.0042495727539 -0.4636079668998718 0.011764705882352941
-3.115137815475464 118.24361419677734 0.687353789806366 0.00784313725490196
-5.246001243591309 127.07308959960938 -0.4552340805530548 0.011764705882352941
-3.140026330947876 118.34674072265625 0.6787760853767395 0.00784313725490196
-5.5552825927734375 128.35443115234375 -0.44058239459991455 0.011764705882352941
-3.1801114082336426 118.51285552978516 0.6365494728088379 0.011764705882352941
-5.181714057922363 126.8061294555664 0.11003594845533371 1.0
-3.2327377796173096 118.73095703125 0.573322057723999 0.011764705882352941
-5.195662498474121 126.86365509033203 0.35428446531295776 1.0
-3.720588207244873 120.75326538085938 -0.46140480041503906 0.03137254901960784
-5.22268009185791 126.97532653808594 0.591372549533844 0.15294117647058825
-3.7814793586730957 121.00553894042969 -0.4642253816127777 0.043137254901960784
-3.85310435295105 121.30229949951172 -0.4766696095466614 0.08235294117647059
-5.5645976066589355 128.39146423339844 0.995552659034729 1.0
-3.925081729888916 121.60050201416016 -0.47439631819725037 0.023529411764705882
-4.005332946777344 121.9329833984375 -0.4737730324268341 0.023529411764705882
-4.089698791503906 122.28250122070312 -0.464254230260849 0.03529411764705882
-4.200736999511719 122.7425537109375 -0.47835347056388855 0.01568627450980392
-4.3112101554870605 123.20023345947266 -0.4707721769809723 0.01568627450980392
-4.440276622772217 123.73495483398438 -0.4662540555000305 0.00784313725490196
-4.59726095199585 124.3853530883789 -0.4689074456691742 0.01568627450980392
-4.768223762512207 125.09364318847656 -0.45757371187210083 0.01568627450980392
-4.989774227142334 126.01154327392578 -0.4636022746562958 0.011764705882352941
-3.1066410541534424 118.23361206054688 0.6950359344482422 1.0
-5.208972930908203 127.07391357421875 -0.4535682797431946 0.011764705882352941
-3.1323227882385254 118.34160614013672 0.6830092668533325 0.00784313725490196
-5.514911651611328 128.3600616455078 -0.43983325362205505 0.011764705882352941
-3.173818349838257 118.5161361694336 0.6355336904525757 0.011764705882352941
-5.145637035369873 126.80665588378906 0.11133626848459244 0.00784313725490196
-3.2232983112335205 118.72425079345703 0.5782138109207153 0.011764705882352941
-5.159423828125 126.86418914794922 0.3553999960422516 1.0
-3.705904006958008 120.75496673583984 -0.46046316623687744 0.027450980392156862
-5.187479496002197 126.98171997070312 0.5916141867637634 0.16470588235294117
-3.766367197036743 121.00916290283203 -0.464220255613327 0.0392156862745098
-3.8365888595581055 121.30439758300781 -0.4758104085922241 0.0784313725490196
-5.5279927253723145 128.4125518798828 0.9947435259819031 1.0
-3.908841848373413 121.60814666748047 -0.4760131239891052 0.023529411764705882
-3.9875731468200684 121.93913269042969 -0.47453543543815613 0.023529411764705882
-17.810882568359375 180.0513458251953 0.3849506378173828 0.24705882352941178
-4.072940826416016 122.29801177978516 -0.46860089898109436 0.043137254901960784
-4.178997039794922 122.743896484375 -0.476982980966568 0.01568627450980392
-4.28838586807251 123.2037582397461 -0.4701266884803772 0.01568627450980392
-4.415677547454834 123.73888397216797 -0.4656520485877991 0.00784313725490196
-4.569168567657471 124.38417053222656 -0.46670258045196533 0.011764705882352941
-4.738669395446777 125.09674072265625 -0.45655569434165955 0.01568627450980392
-4.957172393798828 126.01535034179688 -0.46267327666282654 0.011764705882352941
-3.102330207824707 118.23979187011719 0.6917470693588257 1.0
-5.176942348480225 127.08750915527344 -0.4547923505306244 0.011764705882352941
-3.130784749984741 118.36115264892578 0.6713765859603882 0.00784313725490196
-5.47795295715332 128.37081909179688 -0.44018277525901794 0.011764705882352941
-3.167860984802246 118.5193099975586 0.6345186829566956 0.011764705882352941
-5.118590354919434 126.8373794555664 0.1074860468506813 0.00784313725490196
-3.2135019302368164 118.71401977539062 0.5850623250007629 0.011764705882352941
-5.126371383666992 126.86995697021484 0.3556918799877167 1.0
-3.6923727989196777 120.75816345214844 -0.460456520318985 0.03137254901960784
-5.1559038162231445 126.99530792236328 0.590940535068512 0.17647058823529413
-3.7512216567993164 121.00906372070312 -0.4624221622943878 0.043137254901960784
-3.8209176063537598 121.30623626708984 -0.4749489724636078 0.050980392156862744
-5.489707946777344 128.41748046875 0.9950360059738159 1.0
-3.893463611602783 121.61553955078125 -0.47762754559516907 0.03137254901960784
-3.969900608062744 121.94141387939453 -0.47375839948654175 0.023529411764705882
-4.053287982940674 122.29691314697266 -0.46641528606414795 0.0392156862745098
-4.159647464752197 122.75039672851562 -0.4776548743247986 0.01568627450980392
-4.26716423034668 123.20877075195312 -0.4701163172721863 0.01568627450980392
-4.393648147583008 123.74801635742188 -0.46682825684547424 0.00784313725490196
-4.545557975769043 124.39567565917969 -0.46833735704421997 0.011764705882352941
-4.71018123626709 125.09750366210938 -0.4550299048423767 0.01568627450980392
-4.928901195526123 126.030029296875 -0.46449506282806396 0.011764705882352941
-3.094224691390991 118.22966003417969 0.6994308233261108 1.0
-5.144855499267578 127.10100555419922 -0.4560113847255707 0.011764705882352941
-3.123018741607666 118.354248046875 0.676669180393219 0.00784313725490196
-5.442288398742676 128.38719177246094 -0.441630482673645 0.011764705882352941
-3.1595664024353027 118.51240539550781 0.6396130919456482 0.011764705882352941
-5.085155963897705 126.84111785888672 0.10815104097127914 0.00784313725490196
-3.205739974975586 118.71224212646484 0.5870224833488464 0.01568627450980392
-5.090635299682617 126.86404418945312 0.3576442003250122 1.0
-3.6780385971069336 120.75786590576172 -0.4585742950439453 0.03529411764705882
-5.122481822967529 127.00104522705078 0.5911915302276611 0.2196078431372549
-3.7368946075439453 121.01239776611328 -0.4624130427837372 0.0392156862745098
-3.802807569503784 121.29745483398438 -0.4689628779888153 0.050980392156862744
-5.456819534301758 128.4456329345703 0.9936888813972473 1.0
-3.875174045562744 121.61041259765625 -0.4735610783100128 0.027450980392156862
-3.9522294998168945 121.94363403320312 -0.4729788303375244 0.027450980392156862
-4.036175727844238 122.306640625 -0.4685801863670349 0.043137254901960784
-4.140275001525879 122.7568359375 -0.4783240556716919 0.01568627450980392
-4.245930194854736 123.21371459960938 -0.47010281682014465 0.01568627450980392
-4.371151447296143 123.75521850585938 -0.4674074649810791 0.00784313725490196
-4.520598411560059 124.4014892578125 -0.4683215022087097 0.011764705882352941
-4.683020114898682 125.10382843017578 -0.45501261949539185 0.01568627450980392
-4.898811340332031 126.03703308105469 -0.4644758999347687 0.011764705882352941
-3.0910074710845947 118.24069213867188 0.6928520202636719 1.0
-5.109226703643799 127.09915161132812 -0.4539179503917694 0.011764705882352941
-3.116054058074951 118.35062408447266 0.6798471212387085 0.00784313725490196
-5.402176856994629 128.38430786132812 -0.4393938183784485 0.011764705882352941
-3.1536104679107666 118.51554107666016 0.6386000514030457 0.011764705882352941
-3.197993755340576 118.71044158935547 0.5889836549758911 0.01568627450980392
-5.0580363273620605 126.87152862548828 0.3576696515083313 0.00784313725490196
-3.6644985675811768 120.76097869873047 -0.4585636854171753 0.03137254901960784
-5.091691970825195 127.018310546875 0.5900679230690002 0.29411764705882354
-3.723348379135132 121.01918029785156 -0.4641928970813751 0.0392156862745098
-3.787170886993408 121.2991943359375 -0.4680972397327423 0.047058823529411764
-5.4131364822387695 128.427001953125 0.9956373572349548 1.0
-3.8605775833129883 121.62126922607422 -0.4767933487892151 0.03137254901960784
-3.937422752380371 121.9583969116211 -0.47757676243782043 0.023529411764705882
-4.01735782623291 122.30904388427734 -0.46784037351608276 0.03529411764705882
-4.12129020690918 122.76505279541016 -0.4796721935272217 0.01568627450980392
-4.224257469177246 123.21674346923828 -0.4694483280181885 0.01568627450980392
-4.351591110229492 123.77538299560547 -0.47213953733444214 0.011764705882352941
-4.4968976974487305 124.41284942626953 -0.4699486792087555 0.01568627450980392
-4.6566948890686035 125.11384582519531 -0.4559997022151947 0.01568627450980392
-4.868695259094238 126.0439453125 -0.46445232629776 0.011764705882352941
-3.082242250442505 118.22724151611328 0.7027314901351929 1.0
-5.074496746063232 127.10099029541016 -0.45264676213264465 0.011764705882352941
-3.1113438606262207 118.3569107055664 0.6766791939735413 0.00784313725490196
-5.063767910003662 127.0520248413086 -0.18219517171382904 0.0
-3.148392915725708 118.52201843261719 0.6355517506599426 0.011764705882352941
-3.1841623783111572 118.6813735961914 0.6065912246704102 0.011764705882352941
-5.024550914764404 126.87504577636719 0.3582517206668854 0.011764705882352941
-3.651724100112915 120.76749420166016 -0.4604247510433197 0.03529411764705882
-5.060386657714844 127.03353881835938 0.5891790390014648 0.27450980392156865
-3.71016263961792 121.02766418457031 -0.466866135597229 0.03529411764705882
-3.771932363510132 121.30264282226562 -0.46808311343193054 0.050980392156862744
-5.37528657913208 128.4335174560547 0.9958090782165527 1.0
-3.8427271842956543 121.61781311035156 -0.47353336215019226 0.027450980392156862
-3.9205174446105957 121.96411895751953 -0.4783293306827545 0.027450980392156862
-3.9997646808624268 122.31684875488281 -0.4692744016647339 0.03529411764705882
-4.1014485359191895 122.76954650878906 -0.47965380549430847 0.01568627450980392
-4.203413486480713 123.22340393066406 -0.47006648778915405 0.01568627450980392
-4.328578472137451 123.78058624267578 -0.47211819887161255 0.011764705882352941
-4.470621109008789 124.41287994384766 -0.46827876567840576 0.01568627450980392
-4.62821102142334 125.11434173583984 -0.4544620215892792 0.01568627450980392
-4.8428239822387695 126.06976318359375 -0.4690152704715729 0.011764705882352941
-3.0757880210876465 118.22525787353516 0.7049320936203003 1.0
-5.040876388549805 127.11650085449219 -0.45426222681999207 0.011764705882352941
-3.1048104763031006 118.35662078857422 0.677743673324585 0.00784313725490196
-5.325960159301758 128.4054412841797 -0.4400522708892822 0.011764705882352941
-3.1427836418151855 118.52855682373047 0.6325047612190247 0.011764705882352941
-5.007319450378418 126.96192932128906 0.09181320667266846 0.1607843137254902
-3.1761577129364014 118.67958068847656 0.6085547208786011 0.011764705882352941
-5.003360271453857 126.94268035888672 0.34973520040512085 0.01568627450980392
-3.6366405487060547 120.7672348022461 -0.45853573083877563 0.027450980392156862
-5.027597427368164 127.051025390625 0.5880672335624695 0.19215686274509805
-3.693821907043457 121.02581024169922 -0.46416324377059937 0.03529411764705882
-3.755056381225586 121.30269622802734 -0.46635833382606506 0.050980392156862744
-5.341372966766357 128.4676513671875 0.9940697550773621 1.0
-3.8251914978027344 121.61984252929688 -0.4727037250995636 0.023529411764705882
-3.9006357192993164 121.96098327636719 -0.47523537278175354 0.027450980392156862
-3.979905128479004 122.31936645507812 -0.46852779388427734 0.03529411764705882
-4.082920551300049 122.78523254394531 -0.4837214946746826 0.01568627450980392
-4.180542945861816 123.2265625 -0.4694044291973114 0.01568627450980392
-4.303857803344727 123.78414154052734 -0.47149839997291565 0.011764705882352941
-4.443802833557129 124.41688537597656 -0.4677011966705322 0.023529411764705882
-4.5986504554748535 125.1169662475586 -0.453422874212265 0.01568627450980392
-4.811349868774414 126.07877349853516 -0.46943995356559753 0.011764705882352941
-3.069652795791626 118.22318267822266 0.7071329355239868 1.0
-5.00571346282959 127.1162109375 -0.4525677561759949 0.011764705882352941
-3.098968267440796 118.35791015625 0.677750825881958 0.011764705882352941
-4.996632099151611 127.07292175292969 -0.1832202821969986 0.0
-3.133108615875244 118.51481628417969 0.6416750550270081 0.011764705882352941
-4.975221157073975 126.97301483154297 0.09120933711528778 0.12156862745098039
-3.1659603118896484 118.6657485961914 0.617363691329956 0.011764705882352941
-4.974310398101807 126.9673080444336 0.34729233384132385 0.0196078431372549
-3.6230735778808594 120.77021026611328 -0.4585191011428833 0.023529411764705882
-4.998251914978027 127.07577514648438 0.5860391855239868 0.09411764705882353
-3.6794421672821045 121.02896881103516 -0.46414560079574585 0.03529411764705882
-3.7401912212371826 121.30780792236328 -0.4671933948993683 0.050980392156862744
-5.299587249755859 128.45640563964844 0.9954864382743835 1.0
-3.8097219467163086 121.62698364257812 -0.4743061363697052 0.03137254901960784
-3.8841030597686768 121.96839141845703 -0.4767512381076813 0.027450980392156862
-3.9626517295837402 122.3288803100586 -0.47068193554878235 0.03529411764705882
-4.061816692352295 122.78408813476562 -0.48165199160575867 0.01568627450980392
-4.160461902618408 123.2367935180664 -0.47129201889038086 0.01568627450980392
-4.27716588973999 123.77240753173828 -0.46612653136253357 0.00784313725490196
-4.419186115264893 124.42426300048828 -0.46821966767311096 0.0196078431372549
-4.573486328125 125.13239288330078 -0.4559101462364197 0.01568627450980392
-4.7806925773620605 126.08351135253906 -0.46894389390945435 0.011764705882352941
-3.0670273303985596 118.23743438720703 0.6983633041381836 1.0
-4.974671363830566 127.13493347167969 -0.45500221848487854 0.011764705882352941
-3.0913479328155518 118.35086822509766 0.6830474734306335 0.011764705882352941
-4.960418701171875 127.0666732788086 -0.18059930205345154 0.0
-3.1271238327026367 118.51787567138672 0.6406657695770264 0.011764705882352941
-4.947207927703857 127.00330352783203 0.08738861232995987 0.058823529411764705
-3.162785291671753 118.68428039550781 0.6075947880744934 0.011764705882352941
-4.949275970458984 127.01123046875 0.3420952260494232 0.03529411764705882
-3.6106033325195312 120.77832794189453 -0.46131080389022827 0.03137254901960784
-4.9662699699401855 127.08878326416016 0.5853952169418335 0.054901960784313725
-3.6654245853424072 121.03382873535156 -0.46502140164375305 0.03137254901960784
-3.72530198097229 121.31288146972656 -0.4680261015892029 0.050980392156862744
-5.267935752868652 128.4918212890625 0.9936190247535706 1.0
-3.791156768798828 121.6197738647461 -0.46941643953323364 0.027450980392156862
-3.8663737773895264 121.9703369140625 -0.4759589433670044 0.023529411764705882
-3.945348024368286 122.33834075927734 -0.47283312678337097 0.03529411764705882
-4.043092727661133 122.79390716552734 -0.48366978764533997 0.01568627450980392
-4.142708778381348 123.25808715820312 -0.4770038425922394 0.01568627450980392
-4.25376033782959 123.7755126953125 -0.46550124883651733 0.00784313725490196
-4.394536018371582 124.43155670166016 -0.4687342047691345 0.023529411764705882
-4.5449957847595215 125.13261413574219 -0.45436030626296997 0.01568627450980392
-4.7500224113464355 126.08815002441406 -0.4684430956840515 0.011764705882352941
-3.061561346054077 118.23859405517578 0.6983715891838074 1.0
-4.941109657287598 127.14208221435547 -0.45495134592056274 0.011764705882352941
-3.085523843765259 118.35211181640625 0.6830562949180603 0.011764705882352941
-5.210402011871338 128.41635131835938 -0.437322735786438 0.00784313725490196
-3.120060682296753 118.51586151123047 0.6427115201950073 0.011764705882352941
-4.91739559173584 127.02579498291016 0.08486169576644897 0.027450980392156862
-3.1537487506866455 118.67550659179688 0.6134719848632812 0.011764705882352941
-4.920303821563721 127.03765106201172 0.3393864929676056 0.03137254901960784
-3.596999168395996 120.7812271118164 -0.461290180683136 0.023529411764705882
-4.93792200088501 127.11920166015625 0.582687497138977 0.047058823529411764
-3.651017665863037 121.03689575195312 -0.46499955654144287 0.03529411764705882
-3.710391044616699 121.31790161132812 -0.4688566327095032 0.050980392156862744
-5.228665351867676 128.4920196533203 0.9942241907119751 1.0
-3.774909496307373 121.62323760986328 -0.4693918228149414 0.023529411764705882
-12.23173713684082 161.6429443359375 -0.2595716118812561 0.23137254901960785
-3.848644495010376 121.97222137451172 -0.47516411542892456 0.023529411764705882
-3.9268441200256348 122.34227752685547 -0.47280508279800415 0.0392156862745098
-4.023932456970215 122.80183410644531 -0.4850030839443207 0.01568627450980392
-4.117016792297363 123.24223327636719 -0.46995463967323303 0.01568627450980392
-4.235866069793701 123.8047103881836 -0.4731846749782562 0.011764705882352941
-4.369063854217529 124.43502044677734 -0.46814730763435364 0.023529411764705882
-4.518519878387451 125.1422119140625 -0.45532718300819397 0.01568627450980392
-4.718942642211914 126.09078216552734 -0.46747922897338867 0.011764705882352941
-3.0537214279174805 118.22827911376953 0.7060604691505432 0.00784313725490196
-4.90713357925415 127.14720153808594 -0.45448219776153564 0.011764705882352941
-3.0790085792541504 118.35000610351562 0.6851813793182373 0.011764705882352941
-5.1748247146606445 128.43385314941406 -0.4390995502471924 0.011764705882352941
-3.1137137413024902 118.5171890258789 0.6427220702171326 0.011764705882352941
-4.8878703117370605 127.05014038085938 0.08201731741428375 0.011764705882352941
-3.1472504138946533 118.67864990234375 0.6125057339668274 0.011764705882352941
-4.89119291305542 127.06399536132812 0.33668264746665955 0.01568627450980392
-3.5819547176361084 120.77716064453125 -0.45752057433128357 0.03529411764705882
-4.911835670471191 127.16120910644531 0.5786058902740479 0.027450980392156862
-3.636603355407715 121.0399169921875 -0.46497562527656555 0.0392156862745098
-3.6954610347747803 121.32288360595703 -0.4696849286556244 0.050980392156862744
-5.195517539978027 128.5214080810547 0.9927793145179749 1.0
-3.7593960762023926 121.6302261352539 -0.47098734974861145 0.023529411764705882
-3.831667184829712 121.97766876220703 -0.47590383887290955 0.023529411764705882
-3.9090874195098877 122.34981536865234 -0.47422513365745544 0.0392156862745098
-4.003974914550781 122.80602264404297 -0.48496997356414795 0.01568627450980392
-4.100683689117432 123.27083587646484 -0.4782116413116455 0.01568627450980392
-4.2088823318481445 123.79084777832031 -0.46720919013023376 0.00784313725490196
-4.343981742858887 124.44027709960938 -0.468105673789978 0.023529411764705882
