-2.366783380508423 115.78048706054688 1.3311069011688232 0.00784313725490196
1.7873376607894897 104.612548828125 0.33721277117729187 0.0196078431372549
-2.3440113067626953 115.71928405761719 1.326783537864685 0.011764705882352941
1.786063551902771 104.62100982666016 0.6402000784873962 0.01568627450980392
-2.3166282176971436 115.6456527709961 1.319068431854248 0.00784313725490196
1.786476969718933 104.6249008178711 0.9411478042602539 0.011764705882352941
-2.2958879470825195 115.59004974365234 1.323689579963684 0.00784313725490196
1.7886643409729004 104.6240463256836 1.2429695129394531 0.01568627450980392
-2.2672977447509766 115.51326751708984 1.3217605352401733 0.011764705882352941
9.535039901733398 83.82586669921875 1.0245304107666016 0.0784313725490196
-2.227492570877075 115.40623474121094 1.3107941150665283 0.01568627450980392
12.557416915893555 75.72604370117188 1.8376559019088745 0.10196078431372549
-2.2035748958587646 115.34221649169922 1.3219754695892334 0.011764705882352941
6.637945175170898 91.6268310546875 2.4647767543792725 0.0196078431372549
-2.206521511077881 115.35079956054688 1.3625582456588745 0.01568627450980392
6.653299331665039 91.5959701538086 3.0878219604492188 0.0196078431372549
-0.05381875857710838 109.54049682617188 -0.5351569652557373 0.01568627450980392
0.19417808949947357 108.87458038330078 -0.5463531017303467 0.01568627450980392
0.5038566589355469 108.04289245605469 -0.5692281126976013 0.0196078431372549
6.6811909675598145 91.55248260498047 4.9760003089904785 0.047058823529411764
0.8851161599159241 107.0188980102539 -0.6010602712631226 0.023529411764705882
1.2863942384719849 105.94181823730469 -0.5941516757011414 0.011764705882352941
1.7082034349441528 104.81035614013672 -0.5428707003593445 0.027450980392156862
1.8131433725357056 104.53287506103516 -0.2885383367538452 0.023529411764705882
1.8211679458618164 104.51641082763672 0.016739465296268463 0.01568627450980392
-2.3707523345947266 115.78278350830078 1.3330018520355225 0.00784313725490196
1.7702475786209106 104.54265594482422 0.3304799795150757 0.0196078431372549
-2.350642442703247 115.72826385498047 1.3321865797042847 0.011764705882352941
1.7614434957504272 104.57152557373047 0.6368975043296814 0.01568627450980392
-2.320427417755127 115.64617156982422 1.3199435472488403 0.00784313725490196
1.761855125427246 104.57534790039062 0.9387245774269104 0.011764705882352941
-2.302381753921509 115.5973892211914 1.3277781009674072 0.00784313725490196
1.7654014825820923 104.5706787109375 1.2412478923797607 0.01568627450980392
-2.2689876556396484 115.5067367553711 1.3194705247879028 0.011764705882352941
9.982691764831543 82.29444122314453 0.9880807995796204 0.09019607843137255
-2.2294983863830566 115.39952850341797 1.3086353540420532 0.01568627450980392
12.405975341796875 75.74028778076172 1.838446855545044 0.10196078431372549
-2.2051186561584473 115.33362579345703 1.3192639350891113 0.011764705882352941
9.462812423706055 83.73085021972656 2.6607308387756348 0.07450980392156863
-2.2125890254974365 115.3546142578125 1.3645035028457642 0.01568627450980392
9.435138702392578 83.81912231445312 3.472778558731079 0.1450980392156863
-0.07458565384149551 109.52872467041016 -0.5362139940261841 0.01568627450980392
9.436906814575195 83.8276596069336 4.2882256507873535 0.0784313725490196
0.16735617816448212 108.87284088134766 -0.5439996123313904 0.0196078431372549
6.568753242492676 91.6023178100586 4.338930606842041 0.027450980392156862
0.47507625818252563 108.03841400146484 -0.5675455927848816 0.023529411764705882
6.5749735832214355 91.5957260131836 4.967432022094727 0.047058823529411764
0.8571391701698303 107.00230407714844 -0.6022606492042542 0.023529411764705882
1.2536958456039429 105.92760467529297 -0.5943638682365417 0.011764705882352941
1.6760181188583374 104.78375244140625 -0.5452359318733215 0.023529411764705882
1.7807530164718628 104.5040283203125 -0.290902316570282 0.023529411764705882
1.8119609355926514 104.42428588867188 0.0052743032574653625 0.01568627450980392
3.1850216388702393 100.79837036132812 5.857025623321533 0.01568627450980392
-2.3698949813842773 115.77181243896484 1.3273839950561523 0.00784313725490196
1.7473191022872925 104.48768615722656 0.3255995810031891 0.0196078431372549
-2.3444321155548096 115.70198822021484 1.318741798400879 0.011764705882352941
1.7351913452148438 104.52582550048828 0.6339622139930725 0.0196078431372549
-2.3211402893066406 115.6382064819336 1.3165395259857178 0.00784313725490196
1.7376500368118286 104.5239486694336 0.9361571073532104 0.011764705882352941
-2.2994847297668457 115.57898712158203 1.3196622133255005 0.00784313725490196
1.7411617040634155 104.51921081542969 1.2396146059036255 0.01568627450980392
-2.2763783931732178 115.51582336425781 1.3241157531738281 0.011764705882352941
10.119721412658691 81.5843734741211 0.9721049666404724 0.09803921568627451
-2.230905532836914 115.39107513427734 1.305748462677002 0.01568627450980392
10.146215438842773 81.52578735351562 1.8396042585372925 0.09411764705882353
-2.200296640396118 115.30736541748047 1.3097107410430908 0.01568627450980392
6.553778648376465 91.36774444580078 2.470717668533325 0.09411764705882353
-2.2199225425720215 115.36201477050781 1.3677278757095337 0.01568627450980392
6.570784091949463 91.33129119873047 3.099008560180664 0.0196078431372549
-0.0993138998746872 109.52777862548828 -0.533699095249176 0.01568627450980392
10.03253173828125 81.87852478027344 4.43101167678833 0.09019607843137255
0.14646309614181519 108.85492706298828 -0.5466127991676331 0.0196078431372549
0.45158833265304565 108.01947784423828 -0.569917619228363 0.0392156862745098
3.379506826400757 100.07821655273438 3.908513307571411 0.047058823529411764
0.8264303207397461 106.99310302734375 -0.6016207933425903 0.023529411764705882
3.3941824436187744 100.04483032226562 4.330870628356934 0.00784313725490196
1.2236227989196777 105.90614318847656 -0.596244752407074 0.011764705882352941
1.6403453350067139 104.76646423339844 -0.545755922794342 0.023529411764705882
1.7549813985824585 104.45672607421875 -0.29651501774787903 0.023529411764705882
1.7879786491394043 104.37117767333984 -0.0003459719882812351 0.01568627450980392
-2.37581205368042 115.779052734375 1.332095980644226 0.00784313725490196
1.7239904403686523 104.4263687133789 0.32003095746040344 0.0196078431372549
-2.35302996635437 115.71597290039062 1.326837182044983 0.011764705882352941
1.7133419513702393 104.46067810058594 0.62917560338974 0.0196078431372549
-2.323298692703247 115.63357543945312 1.314847469329834 0.00784313725490196
1.7117230892181396 104.4699478149414 0.9334577322006226 0.011764705882352941
-2.303677797317505 115.57940673828125 1.3204964399337769 0.00784313725490196
1.7172343730926514 104.4594955444336 1.2376174926757812 0.01568627450980392
-2.2776694297790527 115.50749969482422 1.3210551738739014 0.011764705882352941
-2.2369918823242188 115.39481353759766 1.3079553842544556 0.01568627450980392
8.959814071655273 84.44184875488281 1.8404203653335571 0.07058823529411765
-2.2015931606292725 115.2968978881836 1.3063160181045532 0.01568627450980392
6.468418598175049 91.34097290039062 2.471109628677368 0.047058823529411764
-2.2267894744873047 115.3675765991211 1.3703125715255737 0.011764705882352941
6.447136402130127 91.40963745117188 3.094097137451172 0.0196078431372549
-0.12072771042585373 109.51390075683594 -0.535351574420929 0.027450980392156862
6.465776443481445 91.36799621582031 3.723292827606201 0.03529411764705882
0.12088221311569214 108.84562683105469 -0.5464649200439453 0.01568627450980392
6.479960918426514 91.33880615234375 4.360162258148193 0.054901960784313725
0.42193055152893066 108.0128173828125 -0.5687412023544312 0.0392156862745098
3.320101022720337 100.06930541992188 3.907440185546875 0.03529411764705882
0.796664834022522 106.97606658935547 -0.6028207540512085 0.023529411764705882
3.321113109588623 100.07305908203125 4.3239569664001465 0.027450980392156862
1.1962331533432007 105.8712158203125 -0.6010310649871826 0.011764705882352941
3.3280467987060547 100.06058502197266 4.749058246612549 0.023529411764705882
1.6078784465789795 104.73374938964844 -0.54923015832901 0.0196078431372549
1.7315226793289185 104.39570617675781 -0.30439087748527527 0.023529411764705882
1.7642567157745361 104.30987548828125 -0.007072661072015762 0.01568627450980392
-2.378573179244995 115.77806091308594 1.3321114778518677 0.00784313725490196
1.699097990989685 104.37518310546875 0.3156054615974426 0.0196078431372549
-2.360175371170044 115.72669982910156 1.3331356048583984 0.00784313725490196
1.679163932800293 104.43568420410156 0.6282749772071838 0.011764705882352941
-2.3271193504333496 115.63411712646484 1.3157212734222412 0.00784313725490196
1.686274766921997 104.42050170898438 0.9310204982757568 0.011764705882352941
-2.308288097381592 115.58163452148438 1.322142481803894 0.00784313725490196
1.6937508583068848 104.40433502197266 1.235789179801941 0.01568627450980392
-2.2781896591186523 115.49750518798828 1.3172227144241333 0.011764705882352941
8.896703720092773 84.28661346435547 1.0421360731124878 0.07450980392156863
-2.2447030544281006 115.40391540527344 1.3123427629470825 0.011764705882352941
11.970222473144531 75.71595001220703 1.8407237529754639 0.10196078431372549
-2.208385467529297 115.30244445800781 1.3090763092041016 0.01568627450980392
6.417078971862793 91.2332534790039 2.4735188484191895 0.09411764705882353
-2.229576826095581 115.362548828125 1.3690555095672607 0.011764705882352941
6.416801929473877 91.24372863769531 3.1013402938842773 0.09019607843137255
-0.13712766766548157 109.48973846435547 -0.5405890345573425 0.023529411764705882
6.413626670837402 91.26229858398438 3.7294580936431885 0.03529411764705882
0.09532806277275085 108.84051513671875 -0.5452262759208679 0.0196078431372549
6.424222946166992 91.24256134033203 4.3673095703125 0.027450980392156862
0.3944060802459717 108.00496673583984 -0.5680842995643616 0.0392156862745098
3.2689833641052246 100.04668426513672 3.9081990718841553 0.011764705882352941
0.7665393352508545 106.96522521972656 -0.6026516556739807 0.023529411764705882
3.2659308910369873 100.0616226196289 4.323138236999512 0.00784313725490196
1.1659260988235474 105.84990692138672 -0.6029219627380371 0.011764705882352941
3.2694380283355713 100.05836486816406 4.746433258056641 0.011764705882352941
1.5726869106292725 104.7148208618164 -0.5501314401626587 0.0196078431372549
1.705862283706665 104.34662628173828 -0.31033745408058167 0.023529411764705882
1.7429981231689453 104.24749755859375 -0.014094211161136627 0.01568627450980392
-2.3772380352020264 115.76541137695312 1.3255538940429688 0.00784313725490196
1.6792320013046265 104.3090591430664 0.3093196153640747 0.0196078431372549
-2.361915111541748 115.72228240966797 1.3313568830490112 0.00784313725490196
1.660159707069397 104.36760711669922 0.6230953931808472 0.011764705882352941
-2.33573317527771 115.64832305908203 1.3234398365020752 0.00784313725490196
1.6612273454666138 104.36922454833984 0.9284389019012451 0.011764705882352941
-2.311060905456543 115.57870483398438 1.3213474750518799 0.00784313725490196
1.67196786403656 104.34355163574219 1.233677864074707 0.01568627450980392
-2.2873501777648926 115.51187133789062 1.3241773843765259 0.011764705882352941
8.760370254516602 84.3484115600586 1.04510498046875 0.07450980392156863
-2.246781826019287 115.3972396850586 1.310181736946106 0.01568627450980392
1.9048182964324951 103.69602966308594 1.841799020767212 0.011764705882352941
-2.2138891220092773 115.30447387695312 1.3104676008224487 0.01568627450980392
1.9164605140686035 103.6680908203125 2.164788246154785 0.011764705882352941
-2.231130361557007 115.35395050048828 1.3665181398391724 0.011764705882352941
8.787165641784668 84.30917358398438 3.4434123039245605 0.13333333333333333
-0.16190840303897858 109.489013671875 -0.5380848050117493 0.01568627450980392
8.81482982635498 84.24334716796875 4.24849796295166 0.07450980392156863
0.07488907873630524 108.82099151611328 -0.5484015941619873 0.0196078431372549
6.331325531005859 91.24962615966797 4.364211082458496 0.027450980392156862
0.36879581212997437 107.99173736572266 -0.5689499378204346 0.03529411764705882
0.7415663599967957 106.93980407714844 -0.6061763763427734 0.023529411764705882
1.1329176425933838 105.83607482910156 -0.603154182434082 0.011764705882352941
1.5380754470825195 104.69413757324219 -0.5514082908630371 0.01568627450980392
3.2690744400024414 99.89909362792969 5.1977338790893555 0.00784313725490196
1.683889627456665 104.28641510009766 -0.3182343542575836 0.023529411764705882
1.7141304016113281 104.20567321777344 -0.018058205023407936 0.01568627450980392
-2.3881683349609375 115.78777313232422 1.338713526725769 0.00784313725490196
1.660307765007019 104.23918914794922 0.30256596207618713 0.0196078431372549
-2.363090991973877 115.7161865234375 1.3286802768707275 0.00784313725490196
1.636818289756775 104.31080627441406 0.6190263032913208 0.011764705882352941
-2.3359296321868896 115.63866424560547 1.3191783428192139 0.00784313725490196
1.6378812789916992 104.31232452392578 0.9254342913627625 0.011764705882352941
-2.316253900527954 115.58268737792969 1.3238056898117065 0.00784313725490196
1.647861361503601 104.28844451904297 1.2318404912948608 0.01568627450980392
-2.288518190383911 115.50363159179688 1.3211143016815186 0.00784313725490196
8.649028778076172 84.34093475341797 1.0463380813598633 0.07450980392156863
-2.2507388591766357 115.39584350585938 1.310202717781067 0.01568627450980392
1.8580820560455322 103.6986312866211 1.8420147895812988 0.01568627450980392
-2.2175180912017822 115.30120086669922 1.3098061084747314 0.01568627450980392
1.869589924812317 103.6706314086914 2.164583921432495 0.0196078431372549
-2.236480474472046 115.3560791015625 1.3678195476531982 0.011764705882352941
8.672707557678223 84.30903625488281 3.44218111038208 0.12941176470588237
-0.18163388967514038 109.47396087646484 -0.5403500199317932 0.01568627450980392
8.676249504089355 84.3108139038086 4.241365432739258 0.07450980392156863
0.04928060248494148 108.81603240966797 -0.5471699833869934 0.0196078431372549
0.3431326150894165 107.97857666015625 -0.5698197484016418 0.0392156862745098
0.7100433707237244 106.93280792236328 -0.6050942540168762 0.023529411764705882
1.097921371459961 105.82787322998047 -0.6021442413330078 0.011764705882352941
3.6279923915863037 98.70308685302734 4.976803779602051 0.011764705882352941
1.502725601196289 104.6754150390625 -0.5523207783699036 0.0196078431372549
1.6687556505203247 104.20574188232422 -0.3297024071216583 0.023529411764705882
1.6850426197052002 104.16390991210938 -0.022027401253581047 0.01568627450980392
-2.3862993717193604 115.7734603881836 1.3312164545059204 0.01568627450980392
1.6351323127746582 104.18621063232422 0.2978949248790741 0.0196078431372549
-2.368962049484253 115.72360229492188 1.3331820964813232 0.00784313725490196
1.6157770156860352 104.24650573730469 0.6142095327377319 0.011764705882352941
-2.33971905708313 115.6392593383789 1.3200504779815674 0.00784313725490196
1.6148768663406372 104.25357055664062 0.9222854375839233 0.011764705882352941
-2.3172459602355957 115.57459259033203 1.3205692768096924 0.00784313725490196
1.6227988004684448 104.2352523803711 1.2300913333892822 0.01568627450980392
-2.2897331714630127 115.4953842163086 1.3180510997772217 0.00784313725490196
-2.2528750896453857 115.38917541503906 1.308040738105774 0.011764705882352941
1.818630576133728 103.68061065673828 1.842223882675171 0.01568627450980392
-2.2211623191833496 115.29793548583984 1.3091440200805664 0.01568627450980392
1.8234392404556274 103.67145538330078 2.164419174194336 0.0196078431372549
-2.2411937713623047 115.3564453125 1.3684804439544678 0.011764705882352941
6.317457675933838 90.75321197509766 3.122650623321533 0.023529411764705882
-0.20392359793186188 109.46617126464844 -0.5402356386184692 0.01568627450980392
6.317318916320801 90.76289367675781 3.7614309787750244 0.03529411764705882
0.025554774329066277 108.80570983886719 -0.5475964546203613 0.0196078431372549
6.335080146789551 90.72123718261719 4.411774635314941 0.027450980392156862
0.31678465008735657 107.96732330322266 -0.570187509059906 0.03137254901960784
3.404461622238159 99.14871215820312 4.013350963592529 0.027450980392156862
0.6816942691802979 106.9167251586914 -0.6063222885131836 0.023529411764705882
3.411663293838501 99.13439178466797 4.4536967277526855 0.00784313725490196
1.0584299564361572 105.83273315429688 -0.5982293486595154 0.011764705882352941
3.474356174468994 98.96088409423828 4.928728103637695 0.011764705882352941
1.4673014879226685 104.65679931640625 -0.5532390475273132 0.0196078431372549
1.6512234210968018 104.13063049316406 -0.34020158648490906 0.023529411764705882
1.6583338975906372 104.1147232055664 -0.027115121483802795 0.01568627450980392
-2.3875222206115723 115.7674331665039 1.3284144401550293 0.01568627450980392
1.6042693853378296 104.14191436767578 0.29438939690589905 0.0196078431372549
-2.3651342391967773 115.70223236083984 1.3224297761917114 0.00784313725490196
1.5896204710006714 104.18900299072266 0.6101418137550354 0.011764705882352941
-2.3425111770629883 115.63638305664062 1.3192116022109985 0.00784313725490196
1.5874340534210205 104.19976043701172 0.9195610284805298 0.01568627450980392
-2.326150417327881 115.58891296386719 1.327907681465149 0.00784313725490196
1.5939732789993286 104.18512725830078 1.2285335063934326 0.01568627450980392
-2.2959723472595215 115.50104522705078 1.3211519718170166 0.00784313725490196
8.411169052124023 84.35355377197266 1.0494763851165771 0.07450980392156863
-2.260693311691284 115.39830017089844 1.312425971031189 0.011764705882352941
1.7664376497268677 103.69219970703125 1.8424369096755981 0.01568627450980392
-2.22627592086792 115.29815673828125 1.3098502159118652 0.01568627450980392
1.775718092918396 103.66976928710938 2.1643056869506836 0.0196078431372549
-2.242448091506958 115.34598541259766 1.3653026819229126 0.011764705882352941
8.329944610595703 84.6235122680664 3.4241256713867188 0.06274509803921569
-0.22253301739692688 109.4435806274414 -0.5448839664459229 0.011764705882352941
6.212296962738037 90.78781127929688 3.7578110694885254 0.03529411764705882
-0.0008100829436443746 108.79862976074219 -0.5469172596931458 0.01568627450980392
6.219480037689209 90.77609252929688 4.403824806213379 0.027450980392156862
0.29140162467956543 107.94831848144531 -0.5725764036178589 0.03137254901960784
3.3402016162872314 99.14541625976562 4.011549949645996 0.027450980392156862
0.6509614586830139 106.90198516845703 -0.6070855259895325 0.023529411764705882
3.338918924331665 99.15534210205078 4.44786262512207 0.0196078431372549
1.027915358543396 105.80562591552734 -0.6013785600662231 0.011764705882352941
3.3431382179260254 99.14938354492188 4.892662048339844 0.011764705882352941
1.4360955953598022 104.61898040771484 -0.5578514933586121 0.023529411764705882
1.6330028772354126 104.04916381835938 -0.3516666293144226 0.027450980392156862
1.6259633302688599 104.0741958618164 -0.03080546110868454 0.01568627450980392
-2.391859531402588 115.77155303955078 1.331243634223938 0.01568627450980392
1.580716609954834 104.08976745605469 0.28969815373420715 0.0196078431372549
-2.3765528202056885 115.7266616821289 1.3359028100967407 0.00784313725490196
1.5662015676498413 104.13679504394531 0.6064196825027466 0.011764705882352941
-2.3455402851104736 115.63534545898438 1.3192261457443237 0.00784313725490196
1.5666050910949707 104.1399154663086 0.9162527918815613 0.01568627450980392
-2.3275651931762695 115.5826416015625 1.3254828453063965 0.00784313725490196
1.571798324584961 104.12897491455078 1.2265785932540894 0.01568627450980392
-2.295261859893799 115.48763275146484 1.3157755136489868 0.00784313725490196
8.31540584564209 84.32078552246094 1.0499366521835327 0.07450980392156863
-2.2674143314361572 115.40584564208984 1.3160808086395264 0.011764705882352941
1.7234046459197998 103.69226837158203 1.8426213264465332 0.01568627450980392
-2.2260868549346924 115.28431701660156 1.305082082748413 0.01568627450980392
1.7306405305862427 103.67548370361328 2.16402268409729 0.0196078431372549
-2.24877667427063 115.3518295288086 1.3678807020187378 0.011764705882352941
8.328086853027344 84.31671905517578 3.438106060028076 0.19215686274509805
-2.1600282192230225 115.09048461914062 1.3178036212921143 0.011764705882352941
8.331984519958496 84.31633758544922 4.234650611877441 0.07058823529411765
-0.023246673867106438 108.78892517089844 -0.5473577976226807 0.01568627450980392
6.720014572143555 89.05531311035156 4.571609020233154 0.03137254901960784
0.2645859122276306 107.9432373046875 -0.571441113948822 0.03137254901960784
3.351386070251465 98.94139862060547 4.034808158874512 0.011764705882352941
0.6210405826568604 106.89585876464844 -0.606025755405426 0.023529411764705882
3.293625593185425 99.1168212890625 4.451176643371582 0.00784313725490196
0.9959930181503296 105.7947006225586 -0.6012251973152161 0.011764705882352941
3.288820266723633 99.1370620727539 4.891939640045166 0.011764705882352941
1.3981199264526367 104.61429595947266 -0.5562015771865845 0.027450980392156862
1.616783618927002 103.97478485107422 -0.3621847331523895 0.027450980392156862
1.6015725135803223 104.02398681640625 -0.03619189187884331 0.01568627450980392
-2.3919997215270996 115.7621841430664 1.3265632390975952 0.01568627450980392
1.5512466430664062 104.0399398803711 0.28548601269721985 0.0196078431372549
-2.3785078525543213 115.72222137451172 1.3341225385665894 0.011764705882352941
1.5368728637695312 104.08692169189453 0.6030844449996948 0.011764705882352941
-2.3500759601593018 115.63762664794922 1.3209530115127563 0.00784313725490196
1.5417195558547974 104.07672119140625 0.9128212928771973 0.01568627450980392
-2.334608554840088 115.59182739257812 1.3303794860839844 0.00784313725490196
1.5443085432052612 104.0732650756836 1.2247321605682373 0.01568627450980392
-2.301483392715454 115.49331665039062 1.3188751935958862 0.011764705882352941
8.184666633605957 84.3546142578125 1.0521470308303833 0.07450980392156863
-2.2727465629577637 115.40797424316406 1.3175548315048218 0.011764705882352941
1.6765234470367432 103.6890640258789 1.8428205251693726 0.01568627450980392
-2.2342193126678467 115.29347229003906 1.3092067241668701 0.01568627450980392
1.6836556196212769 103.67223358154297 2.1639416217803955 0.0196078431372549
-2.2513060569763184 115.344970703125 1.3659814596176147 0.011764705882352941
6.254165172576904 90.11502075195312 3.151090145111084 0.023529411764705882
-2.1712920665740967 115.10682678222656 1.3237838745117188 0.011764705882352941
6.25109338760376 90.13296508789062 3.8028454780578613 0.0392156862745098
-0.04598755016922951 108.77107238769531 -0.5499937534332275 0.01568627450980392
6.258329391479492 90.12042999267578 4.463824272155762 0.027450980392156862
0.23598916828632355 107.93354797363281 -0.5713082551956177 0.03529411764705882
3.3157520294189453 98.85173797607422 4.043682098388672 0.027450980392156862
0.5895970463752747 106.8831558227539 -0.6063377857208252 0.023529411764705882
3.3211402893066406 98.8417739868164 4.489319801330566 0.03529411764705882
0.9584115147590637 105.78817749023438 -0.5998120903968811 0.011764705882352941
1.3616173267364502 104.59156036376953 -0.5578668117523193 0.027450980392156862
3.2725467681884766 98.99784088134766 5.359833240509033 0.00784313725490196
1.5900884866714478 103.91574096679688 -0.3697693347930908 0.027450980392156862
1.5737866163253784 103.96858215332031 -0.04211922734975815 0.01568627450980392
-2.3914847373962402 115.75117492675781 1.3209431171417236 0.00784313725490196
1.5268306732177734 103.98147583007812 0.2800997495651245 0.0196078431372549
-2.384817361831665 115.7314224243164 1.3395192623138428 0.011764705882352941
1.5125999450683594 104.02838134765625 0.5988056659698486 0.0196078431372549
-2.3538475036621094 115.63826751708984 1.3218227624893188 0.00784313725490196
1.5155121088027954 104.02375793457031 0.9100713729858398 0.01568627450980392
-2.336233615875244 115.58550262451172 1.3279545307159424 0.00784313725490196
1.5231178998947144 104.00505828857422 1.222221851348877 0.01568627450980392
-2.3068811893463135 115.49735260009766 1.3212026357650757 0.011764705882352941
8.081384658813477 84.32633972167969 1.0527403354644775 0.07450980392156863
-2.2760844230651855 115.40489196777344 1.3168449401855469 0.011764705882352941
1.6325676441192627 103.68488311767578 1.8430026769638062 0.01568627450980392
-2.234360694885254 115.27954864501953 1.3044387102127075 0.01568627450980392
1.6396008729934692 103.66802215576172 2.1638903617858887 0.0196078431372549
-2.2536447048187256 115.33819580078125 1.364080786705017 0.011764705882352941
6.14654541015625 90.15902709960938 3.147918939590454 0.023529411764705882
-2.1845812797546387 115.13056182861328 1.332144021987915 0.011764705882352941
6.143463134765625 90.1768569946289 3.7979133129119873 0.0392156862745098
-0.07290508598089218 108.7701644897461 -0.547679603099823 0.01568627450980392
6.15753698348999 90.14336395263672 4.459170341491699 0.027450980392156862
0.2119169384241104 107.915283203125 -0.5737168192863464 0.0392156862745098
0.5573417544364929 106.87850952148438 -0.6048185229301453 0.01568627450980392
0.9294939637184143 105.76197814941406 -0.6029860973358154 0.011764705882352941
3.2740461826324463 98.80097961425781 4.944092750549316 0.011764705882352941
1.3246204853057861 104.57709503173828 -0.558068037033081 0.03137254901960784
3.2756965160369873 98.80198669433594 5.3952765464782715 0.00784313725490196
1.5665147304534912 103.85372924804688 -0.37801727652549744 0.027450980392156862
3.2578043937683105 98.86151123046875 5.8372883796691895 0.00784313725490196
1.5478936433792114 103.91394805908203 -0.048061616718769073 0.01568627450980392
3.2419497966766357 98.91500091552734 6.285749912261963 0.0196078431372549
-2.398728132247925 115.76366424560547 1.3284655809402466 0.00784313725490196
1.5027107000350952 103.9211654663086 0.2744767665863037 0.0196078431372549
-2.381051778793335 115.71006774902344 1.3287651538848877 0.01568627450980392
1.4923622608184814 103.9566421508789 0.593222975730896 0.0196078431372549
-2.363804817199707 115.65782165527344 1.3321025371551514 0.00784313725490196
1.4940088987350464 103.95567321777344 0.9062018990516663 0.01568627450980392
-2.336186647415161 115.57396697998047 1.3230892419815063 0.00784313725490196
1.4996647834777832 103.94255828857422 1.2199848890304565 0.01568627450980392
-2.3139760494232178 115.50666046142578 1.3258404731750488 0.011764705882352941
7.7789306640625 84.90222930908203 1.0680232048034668 0.06666666666666667
-2.27537202835083 115.3894271850586 1.311043620109558 0.011764705882352941
1.586747407913208 103.6865463256836 1.8431775569915771 0.01568627450980392
-2.2398581504821777 115.28168487548828 1.305825114250183 0.01568627450980392
1.5924291610717773 103.67344665527344 2.163597822189331 0.0196078431372549
-2.250110626220703 115.31341552734375 1.3557822704315186 0.011764705882352941
7.978976726531982 84.32614135742188 3.4339029788970947 0.19215686274509805
-2.208441972732544 115.18701934814453 1.3512229919433594 0.011764705882352941
7.995697498321533 84.28569030761719 4.230602264404297 0.07058823529411765
-0.09440329670906067 108.7529067993164 -0.5503290295600891 0.01568627450980392
7.102262020111084 87.00142669677734 4.766373634338379 0.047058823529411764
0.18594606220722198 107.90259552001953 -0.5746114253997803 0.03137254901960784
0.5256962776184082 106.87211608886719 -0.6037652492523193 0.01568627450980392
0.9059475064277649 105.7191390991211 -0.6099050641059875 0.0196078431372549
1.2851152420043945 104.57020568847656 -0.5567959547042847 0.03137254901960784
1.541360855102539 103.79548645019531 -0.38562220335006714 0.027450980392156862
1.5216997861862183 103.85935974121094 -0.05400922894477844 0.01568627450980392
-2.4055018424987793 115.77445220947266 1.3350491523742676 0.00784313725490196
1.4741873741149902 103.86581420898438 0.2695532441139221 0.0196078431372549
-2.3808889389038086 115.69883728027344 1.3233951330184937 0.01568627450980392
1.4657949209213257 103.8955307006836 0.5887580513954163 0.0196078431372549
-2.359874963760376 115.6343765258789 1.3209953308105469 0.00784313725490196
1.4680432081222534 103.89256286621094 0.9027547836303711 0.01568627450980392
-2.3403429985046387 115.57453155517578 1.3239175081253052 0.00784313725490196
1.4705387353897095 103.88885498046875 1.2182152271270752 0.01568627450980392
-2.3149449825286865 115.49663543701172 1.322004795074463 0.011764705882352941
7.9439544677734375 84.0389175415039 1.0483094453811646 0.22745098039215686
-2.284749746322632 115.40399932861328 1.3176065683364868 0.011764705882352941
1.5331348180770874 103.70474243164062 1.843353271484375 0.01568627450980392
-2.244997501373291 115.28197479248047 1.306527853012085 0.01568627450980392
1.5449254512786865 103.67259216308594 2.1634483337402344 0.0196078431372549
-2.2405271530151367 115.26869201660156 1.340448021888733 0.011764705882352941
6.156490325927734 89.54595947265625 3.1760029792785645 0.050980392156862744
-2.231015920639038 115.2398910522461 1.3691097497940063 0.011764705882352941
6.164279460906982 89.53040313720703 3.8420915603637695 0.0392156862745098
-0.12032023072242737 108.7444076538086 -0.5502212643623352 0.01568627450980392
6.993558883666992 86.99930572509766 4.763803005218506 0.047058823529411764
0.1590089201927185 107.88764953613281 -0.5760097503662109 0.03137254901960784
3.4266510009765625 97.92797088623047 4.151142120361328 0.03137254901960784
0.4977659583091736 106.84861755371094 -0.6068578362464905 0.01568627450980392
3.435903787612915 97.90545654296875 4.620143413543701 0.011764705882352941
0.8820863366127014 105.67013549804688 -0.6180679798126221 0.0196078431372549
1.2447285652160645 104.55902862548828 -0.5562607645988464 0.03137254901960784
1.5105924606323242 103.74593353271484 -0.3916025459766388 0.027450980392156862
1.4935897588729858 103.80220794677734 -0.06023097410798073 0.01568627450980392
-2.403965950012207 115.76009368896484 1.3275504112243652 0.00784313725490196
1.4475758075714111 103.81123352050781 0.2646152377128601 0.023529411764705882
-2.3817176818847656 115.69105529785156 1.3198184967041016 0.01568627450980392
1.4410998821258545 103.8351821899414 0.5842788219451904 0.0196078431372549
-2.360880136489868 115.62644958496094 1.3175863027572632 0.00784313725490196
1.4451627731323242 103.826416015625 0.8990146517753601 0.01568627450980392
-2.345978021621704 115.58038330078125 1.3271840810775757 0.00784313725490196
1.4470164775848389 103.82451629638672 1.2158753871917725 0.01568627450980392
-2.322539806365967 115.50775146484375 1.327411413192749 0.011764705882352941
4.917229652404785 93.0709457397461 1.2687898874282837 0.054901960784313725
-2.289825201034546 115.40626525878906 1.3190767765045166 0.011764705882352941
1.4936167001724243 103.6877212524414 1.8435165882110596 0.011764705882352941
-2.253913402557373 115.29489135742188 1.3120156526565552 0.01568627450980392
1.494820475578308 103.6878662109375 2.1629068851470947 0.011764705882352941
-2.237936019897461 115.2456283569336 1.332789421081543 0.011764705882352941
6.059433937072754 89.55438232421875 3.174569845199585 0.023529411764705882
-2.2489118576049805 115.2802505493164 1.3828245401382446 0.011764705882352941
6.064026355743408 89.5482177734375 3.8390796184539795 0.0392156862745098
-0.14254553616046906 108.72911834716797 -0.5523273944854736 0.01568627450980392
6.074752330780029 89.52315521240234 4.512973308563232 0.03137254901960784
0.13233594596385956 107.87696075439453 -0.5764067769050598 0.027450980392156862
3.3601064682006836 97.93144226074219 4.148588180541992 0.03137254901960784
0.46903058886528015 106.83316040039062 -0.6081185936927795 0.01568627450980392
3.371068000793457 97.90316772460938 4.617873668670654 0.023529411764705882
0.862247109413147 105.61434173583984 -0.6279053688049316 0.0196078431372549
1.2094175815582275 104.539306640625 -0.5575889348983765 0.03137254901960784
1.4842091798782349 103.68965148925781 -0.3988937437534332 0.027450980392156862
1.4679960012435913 103.74392700195312 -0.06674521416425705 0.01568627450980392
-2.409454822540283 115.76760864257812 1.3322547674179077 0.01568627450980392
1.4266984462738037 103.73777770996094 0.2573549151420593 0.023529411764705882
-2.3890771865844727 115.70370483398438 1.3270072937011719 0.0196078431372549
1.4136499166488647 103.78245544433594 0.5805368423461914 0.0196078431372549
-2.3641178607940674 115.62541198730469 1.3175987005233765 0.00784313725490196
1.423123836517334 103.75648498535156 0.8949912190437317 0.01568627450980392
-2.349914789199829 115.58103942871094 1.3280103206634521 0.00784313725490196
1.4243483543395996 103.75639343261719 1.2133454084396362 0.01568627450980392
-2.3244757652282715 115.50131225585938 1.325114369392395 0.00784313725490196
4.831023693084717 93.08527374267578 1.269997477531433 0.0784313725490196
-2.294318675994873 115.40678405761719 1.3198190927505493 0.011764705882352941
4.8398590087890625 93.06436920166016 1.8450604677200317 0.07450980392156863
-2.2570531368255615 115.2899398803711 1.3106645345687866 0.01568627450980392
1.475264549255371 103.60810089111328 2.1647093296051025 1.0
-2.232038736343384 115.21170043945312 1.3212926387786865 0.011764705882352941
4.848942756652832 93.0495376586914 3.001987934112549 0.07058823529411765
-2.256138801574707 115.28795623779297 1.3858187198638916 0.011764705882352941
4.8479719161987305 93.05937194824219 3.579176425933838 0.08235294117647059
-0.16891957819461823 108.7267074584961 -0.5505796074867249 0.01568627450980392
4.858567714691162 93.03308868408203 4.16571044921875 0.043137254901960784
0.10503838211297989 107.86820220947266 -0.5763019919395447 0.027450980392156862
0.4390508830547333 106.82149505615234 -0.6084620952606201 0.01568627450980392
0.8361621499061584 105.57720184326172 -0.6335914134979248 0.0196078431372549
1.170445442199707 104.53092956542969 -0.5567045211791992 0.03137254901960784
1.457517385482788 103.63341522216797 -0.4061901569366455 0.027450980392156862
1.4468921422958374 103.67059326171875 -0.07548953592777252 0.01568627450980392
-2.415424108505249 115.77682495117188 1.3378973007202148 0.01568627450980392
1.4054006338119507 103.66432189941406 0.2500898241996765 0.023529411764705882
-2.391538619995117 115.7010498046875 1.326121211051941 0.0196078431372549
1.3972898721694946 103.69369506835938 0.5732648372650146 0.0196078431372549
-2.3684422969818115 115.6278305053711 1.3193215131759644 0.00784313725490196
1.402486801147461 103.68085479736328 0.890545129776001 0.01568627450980392
-2.3554868698120117 115.5869369506836 1.3312755823135376 0.00784313725490196
1.4018933773040771 103.68638610839844 1.2107181549072266 0.01568627450980392
-2.3231287002563477 115.48431396484375 1.3181954622268677 0.011764705882352941
4.750396728515625 93.08275604248047 1.2707774639129639 0.0784313725490196
-2.2960124015808105 115.39842987060547 1.3169246912002563 0.011764705882352941
4.7572736740112305 93.0675277709961 1.8453296422958374 0.10196078431372549
-2.2624740600585938 115.29216003417969 1.3120478391647339 0.011764705882352941
4.758311748504639 93.07084655761719 2.4245259761810303 0.054901960784313725
-2.2274837493896484 115.18133544921875 1.3110750913619995 0.011764705882352941
4.76615047454834 93.05259704589844 3.0009536743164062 0.050980392156862744
-2.265605926513672 115.302978515625 1.3911938667297363 0.011764705882352941
4.766941070556641 93.05667114257812 3.5779128074645996 0.08235294117647059
-0.19297641515731812 108.71705627441406 -0.5510400533676147 0.01568627450980392
4.775579452514648 93.03599548339844 4.163375377655029 0.08627450980392157
0.07945508509874344 107.85398864746094 -0.5777190923690796 0.027450980392156862
4.785577774047852 93.0110092163086 4.748590469360352 0.03529411764705882
0.4084429144859314 106.81177520751953 -0.6083494424819946 0.01568627450980392
0.8163436651229858 105.51959228515625 -0.6438531875610352 0.0196078431372549
1.1361819505691528 104.50767517089844 -0.5587834119796753 0.03137254901960784
1.4204299449920654 103.60921478271484 -0.40798449516296387 0.027450980392156862
1.4194146394729614 103.61615753173828 -0.08145765215158463 0.01568627450980392
-2.414004325866699 115.76246643066406 1.330397605895996 0.01568627450980392
1.3830952644348145 103.59276580810547 0.24305149912834167 0.01568627450980392
-2.392953395843506 115.69498443603516 1.323440432548523 0.023529411764705882
-2.3711400032043457 115.62509155273438 1.3184775114059448 0.00784313725490196
1.3832013607025146 103.5995101928711 0.8856765031814575 0.01568627450980392
-2.356682062149048 115.57890319824219 1.32803475856781 0.00784313725490196
1.379042387008667 103.61638641357422 1.2080857753753662 0.0196078431372549
-2.3262650966644287 115.48139190673828 1.3174381256103516 0.011764705882352941
4.665064334869385 93.09577178955078 1.2719146013259888 0.0784313725490196
-2.2999660968780518 115.39718627929688 1.3169386386871338 0.011764705882352941
4.677171230316162 93.0633316040039 1.8455878496170044 0.10196078431372549
-2.26843523979187 115.29619598388672 1.3141142129898071 0.011764705882352941
4.685888290405273 93.04181671142578 2.4249284267425537 0.07450980392156863
-2.2349326610565186 115.18892669677734 1.3142894506454468 0.011764705882352941
1.4645856618881226 103.35668182373047 2.495051383972168 0.00784313725490196
-2.268735408782959 115.2979965209961 1.3900178670883179 0.011764705882352941
1.4718657732009888 103.33697509765625 2.8217055797576904 1.0
-0.21821123361587524 108.71114349365234 -0.5504021048545837 0.01568627450980392
1.4785878658294678 103.31909942626953 3.15268611907959 1.0
0.05266156047582626 107.84354400634766 -0.5781288743019104 0.023529411764705882
3.452099561691284 97.01239013671875 4.255070209503174 0.0196078431372549
0.3806995749473572 106.79286193847656 -0.6105456352233887 0.01568627450980392
3.452984094619751 97.0149154663086 4.741127014160156 0.01568627450980392
0.791547417640686 105.4769515991211 -0.6507949829101562 0.0196078431372549
1.099473476409912 104.49202728271484 -0.5593892931938171 0.03137254901960784
1.3609150648117065 103.65672302246094 -0.3974747061729431 0.0196078431372549
1.3358615636825562 103.59265899658203 0.2448177933692932 1.0
-2.3998167514801025 115.7059555053711 1.3297308683395386 0.0196078431372549
1.324361801147461 103.63336944580078 0.5702134966850281 0.043137254901960784
-2.37668514251709 115.63093566894531 1.3219103813171387 0.00784313725490196
1.3429301977157593 103.5765609741211 0.8851258158683777 1.0
-2.35972261428833 115.57604217529297 1.3272335529327393 0.00784313725490196
1.3482062816619873 103.56288146972656 1.206288456916809 1.0
-2.333958387374878 115.49253845214844 1.3228428363800049 0.011764705882352941
1.353601098060608 103.54878997802734 1.5250300168991089 1.0
-2.303596258163452 115.39410400390625 1.316225528717041 0.011764705882352941
4.601255416870117 93.03138732910156 1.845852255821228 0.050980392156862744
-2.2723946571350098 115.29299926757812 1.3134455680847168 0.011764705882352941
4.594475746154785 93.05949401855469 2.4241561889648438 0.054901960784313725
-2.2392430305480957 115.18560791015625 1.3136662244796753 0.011764705882352941
1.3790582418441772 103.47655487060547 2.488656520843506 0.011764705882352941
-2.272691488265991 115.29476928710938 1.3894376754760742 0.011764705882352941
1.415713906288147 103.36132049560547 2.819058418273926 0.00784313725490196
-0.24256868660449982 108.69754028320312 -0.5519676208496094 0.01568627450980392
1.4205825328826904 103.34904479980469 3.148547649383545 0.00784313725490196
0.026013309136033058 107.8271713256836 -0.5800548195838928 0.023529411764705882
1.434374213218689 103.30789947509766 3.481167793273926 1.0
0.3482974171638489 106.78280639648438 -0.610436737537384 0.01568627450980392
3.380931854248047 97.0153579711914 4.738282203674316 0.01568627450980392
0.7703365683555603 105.41505432128906 -0.6618903279304504 0.0196078431372549
1.0634886026382446 104.46644592285156 -0.5618423819541931 0.03137254901960784
1.318668007850647 103.64153289794922 -0.39765462279319763 1.0
1.3239494562149048 103.62784576416016 -0.07560887932777405 1.0
1.290359616279602 103.59532165527344 0.24680158495903015 1.0
-2.401768207550049 115.70162200927734 1.3279463052749634 0.0196078431372549
1.2777670621871948 103.63990020751953 0.5721985101699829 0.09019607843137255
-2.378333568572998 115.62476348876953 1.319354772567749 0.011764705882352941
1.2867863178253174 103.61359405517578 0.8888757228851318 0.01568627450980392
-2.3636515140533447 115.57675170898438 1.3280575275421143 0.00784313725490196
1.2872858047485352 103.615234375 1.2095643281936646 0.027450980392156862
-2.337080955505371 115.4896469116211 1.3220844268798828 0.011764705882352941
1.2908190488815308 103.60690307617188 1.526867151260376 0.03529411764705882
-2.3102729320526123 115.40180206298828 1.3198740482330322 0.011764705882352941
1.3015438318252563 103.57501983642578 1.8442519903182983 0.01568627450980392
-2.275585412979126 115.2880859375 1.3120919466018677 0.011764705882352941
1.30018150806427 103.58275604248047 2.164623975753784 1.0
-2.24110746383667 115.17512512207031 1.3104832172393799 0.011764705882352941
1.2954909801483154 103.60137176513672 2.482057809829712 1.0
-2.278092622756958 115.29710388183594 1.3906422853469849 0.011764705882352941
1.3381961584091187 103.46482849121094 2.810662269592285 1.0
-0.26673397421836853 108.6881103515625 -0.5524393320083618 0.01568627450980392
1.352931261062622 103.41992950439453 3.1404778957366943 0.00784313725490196
-0.0031307986937463284 107.82429504394531 -0.5784494876861572 0.0196078431372549
1.3764729499816895 103.34622955322266 3.475022077560425 1.0
0.31870266795158386 106.76964569091797 -0.6112601161003113 0.01568627450980392
0.7472900152206421 105.36500549316406 -0.6705036163330078 0.0196078431372549
1.0294896364212036 104.44161987304688 -0.5643080472946167 0.03137254901960784
1.5863875150680542 102.61717987060547 -0.5711391568183899 0.03137254901960784
1.338672161102295 103.43347930908203 -0.1021677553653717 0.011764705882352941
-2.4185454845428467 115.74629211425781 1.3229161500930786 0.0196078431372549
1.3028243780136108 103.40603637695312 0.2253868728876114 0.023529411764705882
-2.4032294750213623 115.69557189941406 1.3252642154693604 0.0196078431372549
1.2812682390213013 103.48072052001953 0.5580443739891052 0.00784313725490196
-2.3852174282073975 115.63589477539062 1.3253519535064697 0.011764705882352941
1.3075363636016846 103.39679718017578 0.8741098642349243 1.0
-2.372830390930176 115.594970703125 1.3370124101638794 0.00784313725490196
-2.343405246734619 115.49736785888672 1.3259464502334595 0.011764705882352941
1.2550112009048462 103.57723236083984 1.526577353477478 1.0
-2.312607526779175 115.39525604248047 1.317704677581787 0.011764705882352941
1.2551913261413574 103.57975769042969 1.8443740606307983 0.00784313725490196
-2.284214735031128 115.30117797851562 1.3175746202468872 0.011764705882352941
1.2474511861801147 103.6085433959961 2.163806915283203 0.0196078431372549
-2.249582052230835 115.18641662597656 1.314974308013916 0.011764705882352941
1.2543307542800903 103.58887481689453 2.4821829795837402 0.011764705882352941
-2.2823750972747803 115.29580688476562 1.390655279159546 0.011764705882352941
1.2711783647537231 103.53622436523438 2.8046350479125977 1.0
-0.2925967276096344 108.68428039550781 -0.5512620806694031 0.01568627450980392
1.2742502689361572 103.52922821044922 3.1286704540252686 0.0
-0.030036136507987976 107.8141098022461 -0.5788717865943909 0.027450980392156862
1.2838042974472046 103.50077819824219 3.454677104949951 1.0
0.2896164655685425 106.75471496582031 -0.6125486493110657 0.01568627450980392
3.480595588684082 96.23616027832031 4.847638130187988 0.0196078431372549
0.7177602648735046 105.33560180664062 -0.6745513081550598 0.01568627450980392
0.9925378561019897 104.42630004882812 -0.5649313926696777 0.03137254901960784
3.303581714630127 96.83152770996094 5.7530012130737305 0.011764705882352941
1.5522540807724 102.5717544555664 -0.5765120387077332 0.03137254901960784
1.3070708513259888 103.38870239257812 -0.10676798969507217 0.0196078431372549
3.273533582687378 96.94074249267578 6.736511707305908 0.01568627450980392
-2.4254283905029297 115.75897979736328 1.3304333686828613 0.0196078431372549
1.2732923030853271 103.3536148071289 0.2206433117389679 0.023529411764705882
-2.407777786254883 115.6998062133789 1.3279640674591064 0.01568627450980392
1.2707297801971436 103.36528778076172 0.5481511354446411 0.0196078431372549
-2.3848235607147217 115.622802734375 1.3193739652633667 0.01568627450980392
1.2785091400146484 103.3422622680664 0.871168851852417 0.01568627450980392
-2.3699252605438232 115.57295227050781 1.3272645473480225 0.00784313725490196
1.2796133756637573 103.34162902832031 1.1977888345718384 0.0196078431372549
-2.3449463844299316 115.48919677734375 1.3228763341903687 0.00784313725490196
4.343479156494141 93.0749282836914 1.2745577096939087 0.0784313725490196
-2.319225549697876 115.40299224853516 1.3213516473770142 0.011764705882352941
4.35139799118042 93.05377197265625 1.8465136289596558 0.09803921568627451
-2.2916877269744873 115.31071472167969 1.3216890096664429 0.011764705882352941
4.36121940612793 93.02629852294922 2.4239864349365234 0.03529411764705882
-2.250419855117798 115.17230987548828 1.3105107545852661 0.011764705882352941
1.2171337604522705 103.5631103515625 2.482956647872925 1.0
-2.2850282192230225 115.28902435302734 1.3888814449310303 0.011764705882352941
1.2177817821502686 103.5639419555664 2.8018171787261963 0.011764705882352941
-0.31516894698143005 108.66947937011719 -0.5533941388130188 0.01568627450980392
1.2196658849716187 103.56066131591797 3.1245009899139404 1.0
-0.05642598494887352 107.8021469116211 -0.5798039436340332 0.027450980392156862
1.2234269380569458 103.55110168457031 3.4471194744110107 1.0
0.2588014006614685 106.74546813964844 -0.612459659576416 0.01568627450980392
3.410303831100464 96.2357406616211 4.845037937164307 0.0196078431372549
0.6970157027244568 105.2762680053711 -0.6852512955665588 0.0196078431372549
0.9588946104049683 104.3997802734375 -0.5677780508995056 0.03137254901960784
3.3189480304718018 96.55091857910156 5.804704666137695 0.011764705882352941
1.5099921226501465 102.55289459228516 -0.5773566365242004 0.03137254901960784
1.2786250114440918 103.33260345458984 -0.11304178088903427 0.0196078431372549
-2.4242730140686035 115.74458312988281 1.322932243347168 0.0196078431372549
1.24908447265625 103.28219604492188 0.21357831358909607 0.023529411764705882
-2.4148154258728027 115.71263122558594 1.335148572921753 0.01568627450980392
1.244305968284607 103.3013687133789 0.5432590246200562 0.023529411764705882
-2.385526180267334 115.61316680908203 1.3151062726974487 0.01568627450980392
1.2508701086044312 103.28202819824219 0.8678045868873596 0.01568627450980392
-2.370757579803467 115.56317138671875 1.3232083320617676 0.00784313725490196
1.2491228580474854 103.29090881347656 1.1960543394088745 0.0196078431372549
-2.3475751876831055 115.48457336425781 1.3213459253311157 0.00784313725490196
3.651240587234497 95.1490707397461 1.3250775337219238 0.058823529411764705
-2.323690891265869 115.40361022949219 1.3220895528793335 0.011764705882352941
4.2715535163879395 93.05094909667969 1.8467122316360474 0.09803921568627451
-2.2895565032958984 115.2878189086914 1.313496470451355 0.011764705882352941
4.2761149406433105 93.0406723022461 2.423293352127075 0.07450980392156863
