0.017695384100079536 119.47016906738281 -0.42956510186195374 0.0196078431372549
5.070587158203125 124.65995788574219 -0.0023425619583576918 0.0392156862745098
0.1733020544052124 119.62881469726562 -0.4370192289352417 0.027450980392156862
5.0617289543151855 124.66593170166016 0.2602589726448059 0.0392156862745098
0.3340400755405426 119.79306030273438 -0.43815773725509644 0.023529411764705882
0.5204603672027588 119.9831771850586 -0.4461280405521393 0.03137254901960784
5.031157493591309 124.66465759277344 0.7839932441711426 0.07058823529411765
0.7274227738380432 120.19414520263672 -0.45655012130737305 0.03529411764705882
12.256464958190918 132.02310180664062 0.300844669342041 0.011764705882352941
0.9593749046325684 120.4305419921875 -0.4691237509250641 0.043137254901960784
1.2064087390899658 120.68277740478516 -0.47428038716316223 0.023529411764705882
1.4878426790237427 120.9699478149414 -0.4834109842777252 0.023529411764705882
26.73389434814453 146.90573120117188 1.75159752368927 0.12156862745098039
1.7803443670272827 121.2691650390625 -0.47987017035484314 0.07450980392156863
2.16717791557312 121.66337585449219 -0.5012904405593872 0.050980392156862744
33.22682571411133 153.6793975830078 4.13205623626709 0.19215686274509805
2.364089250564575 121.8696517944336 -0.41431567072868347 0.03529411764705882
2.621511459350586 122.13703918457031 -0.3402869701385498 0.027450980392156862
3.294398784637451 122.8212661743164 -0.4037119746208191 0.06666666666666667
3.7588894367218018 123.2989730834961 -0.3534611165523529 0.050980392156862744
32.66957092285156 153.38136291503906 8.877326965332031 0.1803921568627451
4.338352203369141 123.8939208984375 -0.30822935700416565 0.0392156862745098
-0.10651438683271408 119.3265380859375 -0.4323645234107971 0.0
5.069375991821289 124.59451293945312 -0.2562711238861084 0.0392156862745098
0.028809653595089912 119.46408081054688 -0.43112412095069885 0.01568627450980392
5.123298645019531 124.66351318359375 -0.007498782128095627 0.0392156862745098
0.19119501113891602 119.62833404541016 -0.44338011741638184 0.03137254901960784
5.1103034019470215 124.6654281616211 0.2568635642528534 0.03137254901960784
0.34496214985847473 119.7848129272461 -0.4385569393634796 0.023529411764705882
5.0734453201293945 124.64331817626953 0.5250952243804932 0.00784313725490196
0.5345499515533447 119.97685241699219 -0.4482521414756775 0.03137254901960784
5.064315319061279 124.64885711669922 0.7842468619346619 0.054901960784313725
0.7370481491088867 120.18216705322266 -0.4550790786743164 0.0392156862745098
12.321175575256348 131.99313354492188 0.3018156886100769 0.011764705882352941
0.9697301387786865 120.4178237915039 -0.46765318512916565 0.043137254901960784
16.3311767578125 136.07952880859375 0.5266148447990417 0.023529411764705882
1.2228065729141235 120.6744384765625 -0.4759010076522827 0.023529411764705882
1.495886206626892 120.95162200927734 -0.47974056005477905 0.023529411764705882
26.73557472229004 146.71914672851562 1.7571288347244263 0.12156862745098039
1.803992748260498 121.26437377929688 -0.48387613892555237 0.06666666666666667
2.1800107955932617 121.64547729492188 -0.4991333782672882 0.047058823529411764
33.43013381958008 153.65625 4.144158363342285 0.19215686274509805
2.387028694152832 121.86050415039062 -0.41640231013298035 0.03529411764705882
2.882622003555298 122.36268615722656 -0.4385528862476349 0.00784313725490196
3.319023609161377 122.80794525146484 -0.4046744406223297 0.043137254901960784
3.7836523056030273 123.28284454345703 -0.353695809841156 0.054901960784313725
32.92131042480469 153.41188049316406 8.911154747009277 0.17647058823529413
4.36083984375 123.8718490600586 -0.3069670796394348 0.0392156862745098
32.828651428222656 153.38677978515625 10.118368148803711 0.10980392156862745
-0.11788226664066315 119.29966735839844 -0.414913147687912 1.0
5.095444679260254 124.571533203125 -0.2552521526813507 0.0392156862745098
0.03743545338511467 119.45555877685547 -0.4306374788284302 0.0196078431372549
5.17051887512207 124.66124725341797 -0.011333162896335125 0.0392156862745098
0.19782951474189758 119.61688995361328 -0.4409008026123047 0.03137254901960784
5.158952236175537 124.66468811035156 0.25347936153411865 0.027450980392156862
0.3596678376197815 119.78021240234375 -0.4417780935764313 0.023529411764705882
5.129058361053467 124.64981079101562 0.5213173031806946 1.0
0.5473499298095703 119.96923065185547 -0.4494740962982178 0.027450980392156862
5.1157355308532715 124.6512451171875 0.7820495367050171 0.054901960784313725
0.7518141269683838 120.17520141601562 -0.45703932642936707 0.03137254901960784
12.374582290649414 131.9516143798828 0.3039400577545166 0.011764705882352941
0.9787330627441406 120.40380096435547 -0.4653659462928772 0.0392156862745098
16.380451202392578 136.00840759277344 0.5307995080947876 0.023529411764705882
1.2312709093093872 120.6583023071289 -0.4728812575340271 0.023529411764705882
1.5158352851867676 120.94500732421875 -0.4826405644416809 0.023529411764705882
26.757488250732422 146.5541534423828 1.7625869512557983 0.11764705882352941
1.8142423629760742 121.246337890625 -0.48101091384887695 0.07058823529411765
2.1968321800231934 121.63153076171875 -0.49890321493148804 0.047058823529411764
33.678565979003906 153.6776885986328 4.159176349639893 0.19607843137254902
2.4058802127838135 121.84725189208984 -0.41668900847435 0.03529411764705882
33.4452018737793 153.50982666015625 5.345093250274658 0.23529411764705882
2.8921217918395996 122.33710479736328 -0.43422937393188477 0.00784313725490196
3.3436248302459717 122.79451751708984 -0.405632883310318 0.0196078431372549
3.811142921447754 123.26937103271484 -0.35485485196113586 0.054901960784313725
33.17357635498047 153.44117736816406 8.945045471191406 0.17647058823529413
4.384645462036133 123.85108947753906 -0.30612102150917053 0.0392156862745098
33.08418655395508 153.42018127441406 10.157829284667969 0.11372549019607843
-0.11300332099199295 119.28765106201172 -0.41124293208122253 0.00784313725490196
5.121415615081787 124.54572296142578 -0.2537792921066284 0.0392156862745098
0.05272652208805084 119.45247650146484 -0.43523114919662476 0.01568627450980392
5.221994400024414 124.66015625 -0.015732159838080406 0.03529411764705882
0.2074420005083084 119.60733795166016 -0.44035568833351135 0.03137254901960784
5.204839706420898 124.65816497802734 0.2510286867618561 0.023529411764705882
0.37109342217445374 119.77134704589844 -0.44214341044425964 0.023529411764705882
5.186169624328613 124.65464782714844 0.5176317691802979 1.0
0.5491218566894531 119.94984436035156 -0.4425669312477112 0.03529411764705882
5.162980556488037 124.64640045166016 0.7806977033615112 0.050980392156862744
0.7580755949020386 120.1587905883789 -0.45295849442481995 0.0392156862745098
12.477143287658691 131.9537353515625 0.30152037739753723 0.011764705882352941
0.9909514784812927 120.39165496826172 -0.4646730124950409 0.03137254901960784
16.455434799194336 135.9564208984375 0.5336440205574036 0.023529411764705882
1.244332194328308 120.64531707763672 -0.47214049100875854 0.023529411764705882
1.527174949645996 120.92848205566406 -0.4803864657878876 0.027450980392156862
26.778179168701172 146.37850952148438 1.7683357000350952 0.11764705882352941
1.8252122402191162 121.22748565673828 -0.47810065746307373 0.058823529411764705
2.222604990005493 121.62460327148438 -0.5024757981300354 0.050980392156862744
33.89729309082031 153.6546630859375 4.172280311584473 0.19607843137254902
2.42832350730896 121.83570861816406 -0.4181186556816101 0.03529411764705882
33.46345901489258 153.28631591796875 5.341994762420654 0.23921568627450981
2.9258296489715576 122.33340454101562 -0.4392659366130829 0.00784313725490196
3.365121603012085 122.77588653564453 -0.405000776052475 0.011764705882352941
3.832821846008301 123.2478256225586 -0.3536253869533539 0.058823529411764705
33.411861419677734 153.44175720214844 8.97523307800293 0.17647058823529413
4.408241271972656 123.82764434814453 -0.3047828674316406 0.0392156862745098
33.31614303588867 153.4150848388672 10.190644264221191 0.11372549019607843
-0.09385854750871658 119.29006958007812 -0.4203352928161621 0.011764705882352941
5.148739814758301 124.5239486694336 -0.2531261444091797 0.043137254901960784
0.0538359209895134 119.43678283691406 -0.4286123812198639 0.0196078431372549
5.272162437438965 124.66020965576172 -0.020197756588459015 0.03529411764705882
0.21904131770133972 119.60066223144531 -0.4418008625507355 0.03137254901960784
5.262082576751709 124.66532135009766 0.24598123133182526 0.027450980392156862
0.37557610869407654 119.75687408447266 -0.4378337264060974 0.027450980392156862
5.232122898101807 124.65081787109375 0.5155240297317505 1.0
0.5657241344451904 119.94586944580078 -0.44648414850234985 0.03137254901960784
5.215981483459473 124.64970397949219 0.7783358693122864 0.047058823529411764
0.774096667766571 120.15298461914062 -0.45577239990234375 0.03529411764705882
12.520543098449707 131.90185546875 0.3046634793281555 0.011764705882352941
1.0024877786636353 120.38011169433594 -0.46401533484458923 0.03137254901960784
16.531185150146484 135.91172790527344 0.5360222458839417 0.023529411764705882
1.2606499195098877 120.63682556152344 -0.47375479340553284 0.023529411764705882
1.5390559434890747 120.9139633178711 -0.47890323400497437 0.023529411764705882
26.795724868774414 146.21102905273438 1.7737672328948975 0.11764705882352941
1.8380188941955566 121.21202087402344 -0.4766075015068054 0.06274509803921569
2.2284910678863525 121.59996795654297 -0.49710315465927124 0.047058823529411764
2.4498519897460938 121.8249740600586 -0.419595330953598 0.03529411764705882
33.47150802612305 153.06658935546875 5.338237762451172 0.23921568627450981
2.932429313659668 122.30506134033203 -0.4338333010673523 0.00784313725490196
3.3771960735321045 122.7501220703125 -0.40137529373168945 0.011764705882352941
3.857464551925659 123.23143005371094 -0.35384902358055115 0.050980392156862744
4.4319167137146 123.80672454833984 -0.30393099784851074 0.0392156862745098
33.55461502075195 153.42779541015625 10.22605037689209 0.11764705882352941
-0.08454401046037674 119.2831039428711 -0.42093324661254883 0.011764705882352941
5.173196315765381 124.49932861328125 -0.25172483921051025 0.0392156862745098
0.06362786889076233 119.42936706542969 -0.4291444718837738 0.01568627450980392
5.323826313018799 124.66139221191406 -0.02497781440615654 0.03529411764705882
0.2280978113412857 119.59154510498047 -0.4412819445133209 0.03137254901960784
5.319454669952393 124.67218780517578 0.2409481406211853 0.027450980392156862
0.3940858244895935 119.75576782226562 -0.44387003779411316 0.023529411764705882
5.2852253913879395 124.65373229980469 0.5122549533843994 1.0
0.5771576762199402 119.93689727783203 -0.44680196046829224 0.03137254901960784
5.271925449371338 124.6555404663086 0.7756106853485107 0.0392156862745098
0.7848860025405884 120.14212799072266 -0.4551542103290558 0.03137254901960784
12.576565742492676 131.86244201660156 0.30653300881385803 0.011764705882352941
1.0166313648223877 120.37106323242188 -0.46498653292655945 0.027450980392156862
1.2729579210281372 120.62443542480469 -0.4730495810508728 0.023529411764705882
1.5522329807281494 120.90070343017578 -0.4781482517719269 0.023529411764705882
26.79973030090332 146.0310516357422 1.7792062759399414 0.11764705882352941
1.8548381328582764 121.20042419433594 -0.4771708846092224 0.06274509803921569
2.2479121685028076 121.5884780883789 -0.4981502294540405 0.047058823529411764
2.471367120742798 121.81414794921875 -0.4210679531097412 0.03529411764705882
33.45169448852539 152.82041931152344 5.331857204437256 0.23921568627450981
2.966534376144409 122.30345153808594 -0.4394685626029968 0.00784313725490196
3.4155588150024414 122.74993133544922 -0.4074067771434784 0.011764705882352941
3.8778858184814453 123.21087646484375 -0.35267895460128784 0.050980392156862744
33.87130355834961 153.44654846191406 9.033954620361328 0.17254901960784313
4.461140155792236 123.79118347167969 -0.30474814772605896 0.0392156862745098
33.793540954589844 153.43936157226562 10.261512756347656 0.11764705882352941
-0.07029616832733154 119.28073120117188 -0.4257742166519165 0.01568627450980392
5.200394153594971 124.47737121582031 -0.2510649859905243 0.0392156862745098
0.07716185599565506 119.42544555664062 -0.43273812532424927 0.01568627450980392
5.37557315826416 124.66233825683594 -0.029745979234576225 0.03529411764705882
0.23585428297519684 119.58120727539062 -0.4397812783718109 0.03137254901960784
5.3783650398254395 124.68016052246094 0.23564879596233368 0.03137254901960784
0.3984889090061188 119.74126434326172 -0.4395596385002136 0.023529411764705882
5.329886436462402 124.6480712890625 0.5104032158851624 1.0
0.5846697092056274 119.92420196533203 -0.44442251324653625 0.03529411764705882
5.3222832679748535 124.6555404663086 0.7736509442329407 0.0392156862745098
0.7956392765045166 120.13123321533203 -0.4545349180698395 0.03137254901960784
12.67241096496582 131.86190795898438 0.3044419586658478 0.011764705882352941
1.0307526588439941 120.36195373535156 -0.4659556448459625 0.027450980392156862
16.680997848510742 135.820068359375 0.5409104228019714 0.023529411764705882
1.2838881015777588 120.6107406616211 -0.471571147441864 0.0196078431372549
1.566713809967041 120.88868713378906 -0.478120893239975 0.027450980392156862
26.812864303588867 145.86117553710938 1.7846064567565918 0.11764705882352941
1.8716273307800293 121.18875885009766 -0.4777316153049469 0.058823529411764705
2.2618350982666016 121.5716781616211 -0.4966279864311218 0.047058823529411764
2.4887311458587646 121.79927062988281 -0.4207446873188019 0.03529411764705882
33.46613693237305 152.60983276367188 5.328866958618164 0.24313725490196078
2.975743293762207 122.2777099609375 -0.4351412057876587 0.00784313725490196
3.4302966594696045 122.72674560546875 -0.4047934114933014 0.011764705882352941
3.90663743019104 123.1983642578125 -0.35428497195243835 0.050980392156862744
34.12824249267578 153.473876953125 9.068635940551758 0.17254901960784313
4.4861159324646 123.77145385742188 -0.30430716276168823 0.0392156862745098
34.01469039916992 153.4316864013672 10.292844772338867 0.11764705882352941
-0.07218196988105774 119.26329040527344 -0.4168221652507782 0.01568627450980392
5.224699020385742 124.45259857177734 -0.24965806305408478 0.0392156862745098
0.0818914920091629 119.41325378417969 -0.4291834235191345 0.01568627450980392
5.433085918426514 124.66851806640625 -0.03580592945218086 0.03529411764705882
0.24612118303775787 119.57322692871094 -0.4402413070201874 0.03137254901960784
5.433134078979492 124.6837158203125 0.23120465874671936 0.027450980392156862
0.4092724621295929 119.7327880859375 -0.43995022773742676 0.023529411764705882
5.3917107582092285 124.6587905883789 0.5057552456855774 1.0
0.5960406064987183 119.9151611328125 -0.4447382092475891 0.03137254901960784
5.377005577087402 124.65946960449219 0.771139919757843 0.03529411764705882
0.8076736927032471 120.12154388427734 -0.4547712802886963 0.03137254901960784
12.762680053710938 131.8553466796875 0.30293935537338257 0.011764705882352941
1.0395381450653076 120.3477783203125 -0.4636639356613159 0.03137254901960784
15.673211097717285 134.71926879882812 0.615103006362915 0.0196078431372549
1.2934293746948242 120.59574127197266 -0.4693200886249542 0.027450980392156862
1.5798091888427734 120.87533569335938 -0.47736287117004395 0.027450980392156862
26.81521224975586 145.6817169189453 1.7900034189224243 0.11764705882352941
1.8870244026184082 121.17575073242188 -0.47760453820228577 0.06274509803921569
2.281189441680908 121.56006622314453 -0.49766990542411804 0.047058823529411764
2.508815288543701 121.78697204589844 -0.42161378264427185 0.03529411764705882
33.463958740234375 152.3841094970703 5.324343204498291 0.24313725490196078
3.0056915283203125 122.27188110351562 -0.4391067624092102 0.00784313725490196
3.454728841781616 122.71288299560547 -0.4057336449623108 0.011764705882352941
3.9325661659240723 123.18304443359375 -0.3549599349498749 0.050980392156862744
34.35471725463867 153.46929931640625 9.097308158874512 0.17254901960784313
4.509626865386963 123.75027465820312 -0.3034452497959137 0.0392156862745098
34.22212219238281 153.40907287597656 10.321006774902344 0.12156862745098039
-0.055467959493398666 119.26313781738281 -0.423780620098114 0.01568627450980392
5.253185272216797 124.43181610107422 -0.24936284124851227 0.03529411764705882
0.09288123995065689 119.40690612792969 -0.43073204159736633 0.0196078431372549
5.480748176574707 124.66484832763672 -0.039571139961481094 0.03529411764705882
0.2550897002220154 119.56402587890625 -0.4397194981575012 0.03137254901960784
5.48657751083374 124.68563079833984 0.22705388069152832 0.027450980392156862
0.4174480140209198 119.72187805175781 -0.4384593665599823 0.023529411764705882
5.439373016357422 124.65542602539062 0.5034587979316711 1.0
0.6073874235153198 119.90608215332031 -0.4450520873069763 0.027450980392156862
5.426100254058838 124.65760040283203 0.7693920135498047 0.0392156862745098
0.8144018054008484 120.10688018798828 -0.45157960057258606 0.03529411764705882
12.81575870513916 131.8123321533203 0.30512872338294983 0.011764705882352941
1.0509365797042847 120.33609008789062 -0.4630007743835449 0.03137254901960784
15.831389427185059 134.7602081298828 0.6116625666618347 0.0196078431372549
1.3096404075622559 120.58704376220703 -0.4709261953830719 0.023529411764705882
1.591506004333496 120.86067199707031 -0.4758749008178711 0.027450980392156862
26.826765060424805 145.5122833251953 1.795365810394287 0.11372549019607843
1.9023858308792114 121.16268157958984 -0.47747567296028137 0.050980392156862744
2.3018972873687744 121.54967498779297 -0.4993498921394348 0.047058823529411764
2.5344159603118896 121.77985382080078 -0.42486774921417236 0.03529411764705882
33.4892692565918 152.1866455078125 5.322543621063232 0.24313725490196078
3.025902271270752 122.25665283203125 -0.43919825553894043 0.00784313725490196
3.4735288619995117 122.693603515625 -0.40463986992836 0.011764705882352941
3.95001482963562 123.1595687866211 -0.352855920791626 0.050980392156862744
34.60694885253906 153.4886474609375 9.131006240844727 0.16862745098039217
4.5316619873046875 123.72766876220703 -0.3021632432937622 0.0392156862745098
34.467742919921875 153.42291259765625 10.357921600341797 0.12156862745098039
-0.047028832137584686 119.25442504882812 -0.423287034034729 0.01568627450980392
5.278691291809082 124.40548706054688 -0.24787108600139618 0.03529411764705882
0.08913645148277283 119.38606262207031 -0.4200071096420288 0.01568627450980392
5.5455732345581055 124.67449951171875 -0.046824775636196136 0.0392156862745098
0.2645263373851776 119.55428314208984 -0.4391675889492035 0.027450980392156862
5.538638114929199 124.68311309814453 0.22355680167675018 0.023529411764705882
0.4261099696159363 119.71039581298828 -0.43693748116493225 0.023529411764705882
5.494217395782471 124.65589904785156 0.5003209114074707 1.0
0.6192674040794373 119.8963851928711 -0.44533225893974304 0.03529411764705882
5.48383092880249 124.66095733642578 0.7668004631996155 0.0392156862745098
0.8296083807945251 120.09896850585938 -0.4534916579723358 0.03137254901960784
12.881420135498047 131.7760772705078 0.30649247765541077 0.011764705882352941
1.0575816631317139 120.3187255859375 -0.45904237031936646 0.03529411764705882
15.978757858276367 134.78321838378906 0.6093923449516296 0.0196078431372549
1.322464942932129 120.57379913330078 -0.4701761305332184 0.023529411764705882
1.6065969467163086 120.84776306152344 -0.47580015659332275 0.027450980392156862
26.843971252441406 145.33929443359375 1.8010008335113525 0.11372549019607843
1.9198575019836426 121.1500473022461 -0.47798392176628113 0.043137254901960784
2.3179099559783936 121.53314208984375 -0.4984133541584015 0.043137254901960784
2.558129072189331 121.76908874511719 -0.42687103152275085 0.03137254901960784
33.46112823486328 151.92605590820312 5.315431594848633 0.24313725490196078
3.0316574573516846 122.22584533691406 -0.43315476179122925 0.00784313725490196
3.503152370452881 122.68247985839844 -0.407033771276474 0.011764705882352941
3.9783942699432373 123.14425659179688 -0.35392069816589355 0.054901960784313725
34.84050369262695 153.47528076171875 9.160160064697266 0.16862745098039217
4.559104919433594 123.70777130126953 -0.3020583391189575 0.043137254901960784
-0.04031474143266678 119.24501037597656 -0.4217585623264313 0.01568627450980392
5.307056903839111 124.38451385498047 -0.24756817519664764 0.03529411764705882
0.09878551214933395 119.37850952148438 -0.42053458094596863 0.01568627450980392
5.5919647216796875 124.66897583007812 -0.05024009570479393 0.03137254901960784
0.2708645164966583 119.54267120361328 -0.43668392300605774 0.03137254901960784
5.595132827758789 124.6872329711914 0.21887286007404327 0.03137254901960784
0.43680810928344727 119.70182037353516 -0.437324196100235 0.023529411764705882
5.5463337898254395 124.65616607666016 0.4973485767841339 1.0
0.6266192197799683 119.88359069824219 -0.4429497718811035 0.03137254901960784
5.537408351898193 124.66271209716797 0.764516294002533 0.0392156862745098
0.8388978242874146 120.08671569824219 -0.4520113170146942 0.03529411764705882
12.96315860748291 131.76019287109375 0.3058846890926361 0.01568627450980392
1.0729115009307861 120.31069946289062 -0.46081966161727905 0.0392156862745098
16.056888580322266 134.7452392578125 0.611301839351654 0.06274509803921569
1.3372793197631836 120.56372833251953 -0.4710065424442291 0.03137254901960784
1.6195634603500366 120.83428955078125 -0.4750378131866455 0.027450980392156862
26.85684585571289 145.1730499267578 1.8063238859176636 0.11372549019607843
1.939272403717041 121.14070892333984 -0.47990477085113525 0.0392156862745098
2.3316409587860107 121.51614379882812 -0.49688392877578735 0.043137254901960784
2.5656089782714844 121.74479675292969 -0.42236050963401794 0.023529411764705882
3.0699753761291504 122.22760772705078 -0.4404197037220001 0.00784313725490196
3.5162153244018555 122.65774536132812 -0.4039058983325958 0.011764705882352941
3.9971201419830322 123.12198638916016 -0.3522741496562958 0.054901960784313725
35.06090545654297 153.46046447753906 9.187612533569336 0.16862745098039217
4.5824294090271 123.68635559082031 -0.3011873960494995 0.047058823529411764
34.96097183227539 153.43490600585938 10.431012153625488 0.12549019607843137
-0.02734788879752159 119.24125671386719 -0.42552876472473145 0.01568627450980392
5.335372447967529 124.36343383789062 -0.2472609281539917 0.03529411764705882
0.11733080446720123 119.3790283203125 -0.42819997668266296 0.01568627450980392
5.648468971252441 124.6727066040039 -0.05591967701911926 0.03529411764705882
0.2836053967475891 119.53691101074219 -0.43909865617752075 0.03137254901960784
5.637326240539551 124.67749786376953 0.21699438989162445 0.023529411764705882
0.4448755979537964 119.69083404541016 -0.43583133816719055 0.023529411764705882
5.605756759643555 124.66300201416016 0.49322474002838135 1.0
0.6378800272941589 119.87439727783203 -0.4432595670223236 0.03137254901960784
5.592529773712158 124.66558074951172 0.7620583772659302 0.03529411764705882
0.8521425724029541 120.07809448242188 -0.4530980885028839 0.03529411764705882
13.017443656921387 131.71786499023438 0.3079627454280853 0.01568627450980392
1.0895750522613525 120.30384826660156 -0.4634076654911041 0.043137254901960784
1.3547855615615845 120.55609893798828 -0.4733761250972748 0.03137254901960784
1.6365952491760254 120.82456970214844 -0.476457417011261 0.03137254901960784
26.867525100708008 145.005615234375 1.811631441116333 0.11372549019607843
1.9559170007705688 121.12873840332031 -0.48045283555984497 0.043137254901960784
2.3480958938598633 121.50167846679688 -0.49663403630256653 0.047058823529411764
2.6862666606903076 121.82576751708984 -0.46614667773246765 0.027450980392156862
35.624088287353516 153.5621337890625 5.515096664428711 0.22745098039215686
3.0661585330963135 122.18988037109375 -0.4311210811138153 0.00784313725490196
3.544746160507202 122.64750671386719 -0.40635237097740173 0.011764705882352941
4.0257248878479 123.10897064208984 -0.35385817289352417 0.050980392156862744
4.605693340301514 123.66485595703125 -0.30031347274780273 0.043137254901960784
35.232025146484375 153.46844482421875 10.473603248596191 0.12941176470588237
-0.02320467121899128 119.2295150756836 -0.4218791127204895 0.027450980392156862
5.3607563972473145 124.3395767211914 -0.24620892107486725 0.03529411764705882
0.12441148608922958 119.36907958984375 -0.42668384313583374 0.01568627450980392
5.709401607513428 124.6801986694336 -0.06255993992090225 0.03137254901960784
0.2937528192996979 119.52877044677734 -0.4395524561405182 0.03137254901960784
5.683873653411865 124.67163848876953 0.21428799629211426 0.023529411764705882
0.4581364393234253 119.6845703125 -0.438093364238739 0.023529411764705882
5.658059597015381 124.66275787353516 0.49027833342552185 1.0
0.6477921009063721 119.86396789550781 -0.4426707923412323 0.03529411764705882
5.643392086029053 124.6640853881836 0.7601730823516846 0.0392156862745098
0.8640300631523132 120.06820678710938 -0.4533267617225647 0.03137254901960784
13.123895645141602 131.72457885742188 0.30500155687332153 0.01568627450980392
1.092740774154663 120.28460693359375 -0.45785802602767944 0.03529411764705882
15.450179100036621 133.94850158691406 0.6642634868621826 0.0784313725490196
1.3627535104751587 120.53968048095703 -0.47034841775894165 0.027450980392156862
1.6522341966629028 120.81351470947266 -0.4771469235420227 0.03137254901960784
26.91228485107422 144.8714141845703 1.8169009685516357 0.11372549019607843
1.973914623260498 121.11798095703125 -0.4816829264163971 0.0392156862745098
2.3659000396728516 121.48844146728516 -0.4970223307609558 0.047058823529411764
2.714919090270996 121.820556640625 -0.4705585837364197 0.03137254901960784
34.11356735229492 151.893310546875 5.365967750549316 0.24313725490196078
3.1002554893493652 122.18748474121094 -0.43672052025794983 0.00784313725490196
3.567596435546875 122.63188171386719 -0.406767338514328 0.011764705882352941
4.051459312438965 123.09318542480469 -0.3545144200325012 0.054901960784313725
35.556888580322266 153.47984313964844 9.253207206726074 0.16470588235294117
4.6317548751831055 123.64595031738281 -0.30026930570602417 0.043137254901960784
35.4651985168457 153.4637451171875 10.507526397705078 0.12941176470588237
-0.013612152077257633 119.2218246459961 -0.4224414825439453 0.027450980392156862
5.387397289276123 124.31422424316406 -0.2450743466615677 0.03137254901960784
0.1396082192659378 119.36550903320312 -0.43125641345977783 0.01568627450980392
5.773303985595703 124.68726348876953 -0.06942591816186905 0.03529411764705882
0.2991813123226166 119.5154037475586 -0.436057984828949 0.027450980392156862
5.7376532554626465 124.66948699951172 0.2105603665113449 0.023529411764705882
0.47059527039527893 119.676513671875 -0.4393831789493561 0.023529411764705882
5.711825847625732 124.66078186035156 0.48742708563804626 1.0
0.6582208871841431 119.85292053222656 -0.4420480728149414 0.027450980392156862
5.697164535522461 124.66224670410156 0.7581960558891296 0.043137254901960784
0.8724549412727356 120.05401611328125 -0.45095276832580566 0.03529411764705882
13.201114654541016 131.69801330566406 0.30530133843421936 0.01568627450980392
1.111329197883606 120.2782211303711 -0.4612181782722473 0.03529411764705882
15.450173377990723 133.83502197265625 0.6712943315505981 0.0784313725490196
1.3754209280014038 120.52626037597656 -0.46959200501441956 0.027450980392156862
1.657546043395996 120.79161071777344 -0.4719722270965576 0.027450980392156862
26.939523696899414 144.7114715576172 1.8224645853042603 0.11372549019607843
1.9843330383300781 121.09873962402344 -0.47876039147377014 0.0392156862745098
2.3831076622009277 121.47297668457031 -0.49671822786331177 0.047058823529411764
2.7360432147979736 121.80652618408203 -0.4713362753391266 0.027450980392156862
34.366695404052734 151.90130615234375 5.386056423187256 0.23921568627450981
3.1098740100860596 122.1604995727539 -0.4323311150074005 0.00784313725490196
3.577211380004883 122.60197448730469 -0.4020548462867737 0.011764705882352941
35.99538040161133 153.58438110351562 8.056510925292969 0.1607843137254902
4.068263053894043 123.06688690185547 -0.35187095403671265 0.050980392156862744
4.658977508544922 123.62567138671875 -0.30014896392822266 0.043137254901960784
35.6793327331543 153.4266815185547 10.536056518554688 0.12941176470588237
-0.0057475371286273 119.21343994140625 -0.42196938395500183 0.027450980392156862
5.412635326385498 124.29019165039062 -0.24401593208312988 0.0392156862745098
0.14406868815422058 119.35321044921875 -0.42769932746887207 0.01568627450980392
5.831600666046143 124.69145202636719 -0.07538596540689468 0.03137254901960784
0.30926814675331116 119.50719451904297 -0.43650954961776733 0.03137254901960784
5.795942306518555 124.6739273071289 0.20564916729927063 0.023529411764705882
0.47330617904663086 119.66072082519531 -0.4341336488723755 0.023529411764705882
5.765746593475342 124.661376953125 0.4842737913131714 1.0
0.6680651307106018 119.8424301147461 -0.4414570927619934 0.03137254901960784
5.7540154457092285 124.6656723022461 0.7555916905403137 0.0392156862745098
0.8842751979827881 120.04405975341797 -0.4511793553829193 0.0392156862745098
13.265491485595703 131.6643829345703 0.30643749237060547 0.01568627450980392
1.1197943687438965 120.26385498046875 -0.4589211046695709 0.03529411764705882
15.493425369262695 133.7684783935547 0.6751559376716614 0.0784313725490196
1.3832695484161377 120.50980377197266 -0.4665638208389282 0.027450980392156862
1.682765245437622 120.78923034667969 -0.47774842381477356 0.03137254901960784
26.991857528686523 144.5855255126953 1.8277169466018677 0.3411764705882353
2.000869035720825 121.08660125732422 -0.479302316904068 0.043137254901960784
2.396632671356201 121.4557876586914 -0.49518248438835144 0.047058823529411764
2.7576563358306885 121.79464721679688 -0.4727596640586853 0.027450980392156862
34.579288482666016 151.88172912597656 5.402502059936523 0.23921568627450981
3.1340439319610596 122.1487808227539 -0.43406152725219727 0.00784313725490196
36.355628967285156 153.62359619140625 6.838547229766846 0.21176470588235294
3.6056528091430664 122.59144592285156 -0.40448901057243347 0.011764705882352941
36.268558502197266 153.612548828125 8.088874816894531 0.1607843137254902
4.093900680541992 123.05093383789062 -0.3525204658508301 0.054901960784313725
36.16017150878906 153.58152770996094 9.338594436645508 0.16470588235294117
4.680620193481445 123.60260009765625 -0.29884976148605347 0.043137254901960784
36.06061935424805 153.55963134765625 10.603463172912598 0.27058823529411763
0.0008182782912626863 119.20391082763672 -0.4204372465610504 0.027450980392156862
5.43925142288208 124.26740264892578 -0.2433241456747055 0.03137254901960784
0.1497679352760315 119.34205627441406 -0.4251618981361389 0.01568627450980392
5.887100696563721 124.69269561767578 -0.08068365603685379 0.03137254901960784
0.31933340430259705 119.49895477294922 -0.43695971369743347 0.03137254901960784
5.848510265350342 124.67272186279297 0.2018648236989975 0.0196078431372549
0.48518767952919006 119.65315246582031 -0.4354524314403534 0.023529411764705882
5.81829309463501 124.66035461425781 0.48136529326438904 0.00784313725490196
0.6805459260940552 119.83428192138672 -0.44265860319137573 0.03137254901960784
5.809506893157959 124.66747283935547 0.7531868815422058 0.043137254901960784
0.8960675001144409 120.0340576171875 -0.45140382647514343 0.03137254901960784
13.347399711608887 131.646728515625 0.3059122562408447 0.01568627450980392
1.130928635597229 120.25191497802734 -0.4582492709159851 0.0392156862745098
15.580422401428223 133.74253845214844 0.6762378811836243 0.0784313725490196
1.3951754570007324 120.49703216552734 -0.4658454358577728 0.027450980392156862
1.691392421722412 120.77178192138672 -0.4747965931892395 0.03137254901960784
27.04515838623047 144.4608917236328 1.8329662084579468 0.39215686274509803
2.0131874084472656 121.07063293457031 -0.4777911603450775 0.0392156862745098
2.412912607192993 121.44110107421875 -0.4949244260787964 0.047058823529411764
2.7707576751708984 121.77499389648438 -0.470607727766037 0.023529411764705882
34.828556060791016 151.8952178955078 5.422481536865234 0.23921568627450981
3.1482315063476562 122.12792205810547 -0.4319319427013397 0.00784313725490196
36.60248947143555 153.62454223632812 6.862384796142578 0.21176470588235294
3.6283657550811768 122.57559967041016 -0.40489479899406433 0.011764705882352941
36.52779769897461 153.6257781982422 8.118986129760742 0.1568627450980392
4.122381687164307 123.03750610351562 -0.35408705472946167 0.054901960784313725
36.404144287109375 153.5812225341797 9.370509147644043 0.1607843137254902
4.705079555511475 123.58209228515625 -0.2983790338039398 0.03529411764705882
36.295135498046875 153.55116271972656 10.637575149536133 0.27450980392156865
0.009470264427363873 119.19706726074219 -0.4210489094257355 0.027450980392156862
5.46304178237915 124.24461364746094 -0.2423388808965683 0.03137254901960784
0.1601381003856659 119.33592224121094 -0.4267273247241974 0.0196078431372549
5.934013366699219 124.68852233886719 -0.08443379402160645 0.03137254901960784
0.3275846838951111 119.49005126953125 -0.43645933270454407 0.03137254901960784
5.904163837432861 124.67676544189453 0.19717544317245483 0.023529411764705882
0.4965417683124542 119.6460952758789 -0.436800092458725 0.023529411764705882
5.8944597244262695 124.6833724975586 0.47444993257522583 0.01568627450980392
0.685775876045227 119.82074737548828 -0.43940871953964233 0.03137254901960784
5.868122577667236 124.67452239990234 0.7501559853553772 0.0392156862745098
0.9004969596862793 120.01863861083984 -0.4473886489868164 0.027450980392156862
13.419419288635254 131.62477111816406 0.3059427738189697 0.01568627450980392
1.1482356786727905 120.24667358398438 -0.46167635917663574 0.043137254901960784
15.676248550415039 133.73023986816406 0.6764178276062012 0.0392156862745098
1.4050074815750122 120.48370361328125 -0.4643961191177368 0.027450980392156862
1.6992489099502563 120.75507354736328 -0.47188740968704224 0.03137254901960784
2.0316944122314453 121.06172180175781 -0.4797414243221283 0.043137254901960784
2.4297382831573486 121.42852020263672 -0.4953531324863434 0.047058823529411764
2.797102451324463 121.76902770996094 -0.4744589328765869 0.0196078431372549
35.031272888183594 151.8760223388672 5.4382429122924805 0.23529411764705882
3.1856777667999268 122.12993621826172 -0.4392184317111969 0.00784313725490196
36.86960220336914 153.6555938720703 6.889246940612793 0.21176470588235294
3.6543304920196533 122.56465148925781 -0.4068756103515625 0.011764705882352941
36.772430419921875 153.636474609375 8.147380828857422 0.1568627450980392
4.142536163330078 123.01861572265625 -0.3534127473831177 0.054901960784313725
36.69279479980469 153.63392639160156 9.41183853149414 0.1607843137254902
3.1043283939361572 122.0888671875 0.16749106347560883 0.0392156862745098
36.565433502197266 153.58753967285156 10.680768013000488 0.13725490196078433
0.017689479514956474 119.18814086914062 -0.42054787278175354 0.03137254901960784
5.487924098968506 124.21759033203125 -0.24082206189632416 0.03137254901960784
0.16881757974624634 119.32649230957031 -0.426198273897171 0.01568627450980392
5.9866790771484375 124.68376922607422 -0.08865106850862503 0.027450980392156862
0.3354630768299103 119.47891998291016 -0.4349207878112793 0.03137254901960784
5.964151382446289 124.67886352539062 0.19239060580730438 0.0196078431372549
0.5035936236381531 119.63322448730469 -0.4343331754207611 0.023529411764705882
5.957437992095947 124.68828582763672 0.470267653465271 0.0196078431372549
0.7014287114143372 119.81430053710938 -0.44236624240875244 0.027450980392156862
5.922253131866455 124.67159271240234 0.7482331991195679 0.0392156862745098
0.9182167053222656 120.01273345947266 -0.4509938359260559 0.03529411764705882
13.503996849060059 131.60360717773438 0.3056091368198395 0.01568627450980392
1.150348424911499 120.22549438476562 -0.45527735352516174 0.0392156862745098
16.552248001098633 134.41873168945312 0.6285635828971863 0.08627450980392157
1.4161063432693481 120.46892547607422 -0.46286603808403015 0.027450980392156862
1.7140213251113892 120.74178314208984 -0.47179821133613586 0.03137254901960784
2.050300359725952 121.04983520507812 -0.4809128940105438 0.043137254901960784
2.4439337253570557 121.4103012084961 -0.49376270174980164 0.047058823529411764
2.8181047439575195 121.75467681884766 -0.47522303462028503 0.0196078431372549
35.29180145263672 151.8846435546875 5.459127902984619 0.23529411764705882
3.1907098293304443 122.09892272949219 -0.4331730604171753 0.00784313725490196
37.14562225341797 153.6674041748047 6.916393280029297 0.21568627450980393
3.672243118286133 122.5423355102539 -0.40519070625305176 0.011764705882352941
37.041847229003906 153.64297485351562 8.178470611572266 0.1568627450980392
4.167722225189209 122.9998779296875 -0.35352271795272827 0.054901960784313725
36.9353141784668 153.61611938476562 9.442594528198242 0.1607843137254902
3.119114398956299 122.06702423095703 0.16939936578273773 0.0784313725490196
36.82006072998047 153.58192443847656 10.718306541442871 0.1411764705882353
0.028444722294807434 119.18141174316406 -0.4221622347831726 0.03137254901960784
5.522956848144531 124.19966888427734 -0.24188487231731415 0.03529411764705882
0.17876477539539337 119.31816864013672 -0.4266865849494934 0.0196078431372549
6.045275688171387 124.68402862548828 -0.09414854645729065 0.03137254901960784
0.3485639691352844 119.47234344482422 -0.4372943341732025 0.03137254901960784
6.021302700042725 124.67799377441406 0.18817582726478577 0.023529411764705882
0.5132561922073364 119.6226577758789 -0.4337409436702728 0.023529411764705882
6.0087456703186035 124.6822280883789 0.46794942021369934 0.0196078431372549
0.7116912007331848 119.8030776977539 -0.44173726439476013 0.027450980392156862
5.980886936187744 124.67239379882812 0.7457690238952637 0.0392156862745098
0.9304967522621155 120.00199127197266 -0.45117878913879395 0.03137254901960784
13.5841703414917 131.57801818847656 0.3057096600532532 0.01568627450980392
1.166092038154602 120.2164077758789 -0.4570009112358093 0.0392156862745098
16.5943660736084 134.34010314941406 0.6331535577774048 0.08627450980392157
1.436850666999817 120.46265411376953 -0.46671903133392334 0.03137254901960784
16.60769271850586 134.38612365722656 1.2376097440719604 0.0196078431372549
1.7301490306854248 120.72966766357422 -0.4724334180355072 0.03529411764705882
27.543893814086914 144.38856506347656 1.8491727113723755 0.11372549019607843
2.0533881187438965 121.02417755126953 -0.47457146644592285 0.03529411764705882
2.463736057281494 121.3970718383789 -0.49472576379776 0.043137254901960784
2.8376431465148926 121.73896789550781 -0.47538936138153076 0.023529411764705882
35.5424919128418 151.88250732421875 5.479097366333008 0.23529411764705882
3.208524465560913 122.0794448852539 -0.4320811629295349 0.00784313725490196
37.41187286376953 153.6683807373047 6.94230318069458 0.21568627450980393
3.2770328521728516 122.15158081054688 -0.25908562541007996 0.0196078431372549
37.30003356933594 153.6373291015625 8.20776653289795 0.1568627450980392
4.189955234527588 122.97845458984375 -0.35270896553993225 0.054901960784313725
37.20287322998047 153.6199493408203 9.478148460388184 0.1568627450980392
3.142561674118042 122.05298614501953 0.1688205897808075 0.08235294117647059
37.085208892822266 153.5843963623047 10.758183479309082 0.1411764705882353
0.03961334750056267 119.17668914794922 -0.4248861074447632 0.03137254901960784
5.549488544464111 124.17924499511719 -0.24162711203098297 0.03137254901960784
0.18256744742393494 119.30630493164062 -0.42315706610679626 0.0196078431372549
6.0997233390808105 124.68574523925781 -0.09947951883077621 0.03137254901960784
0.35673514008522034 119.4633560180664 -0.43679091334342957 0.03137254901960784
6.078727722167969 124.68254089355469 0.18325001001358032 0.023529411764705882
0.5232065320014954 119.61433410644531 -0.43414732813835144 0.023529411764705882
6.063259124755859 124.68427276611328 0.4645497500896454 0.023529411764705882
0.7235413789749146 119.79535675048828 -0.44296494126319885 0.03137254901960784
6.036861419677734 124.67594146728516 0.74314945936203 0.047058823529411764
0.9388729929924011 119.99008178710938 -0.4497247040271759 0.0392156862745098
13.662155151367188 131.56044006347656 0.3052312433719635 0.01568627450980392
1.1750906705856323 120.20378875732422 -0.4555499255657196 0.03529411764705882
1.4521234035491943 120.4540786743164 -0.46834132075309753 0.03137254901960784
1.742045283317566 120.7165756225586 -0.471700519323349 0.03529411764705882
2.073216199874878 121.0163345336914 -0.4771972596645355 0.043137254901960784
2.4761881828308105 121.38055419921875 -0.4932326078414917 0.047058823529411764
2.856820583343506 121.72637939453125 -0.47625526785850525 0.0196078431372549
3.2445714473724365 122.07980346679688 -0.4387997090816498 0.00784313725490196
37.60549545288086 153.62704467773438 6.959824562072754 0.21568627450980393
3.262697219848633 122.10693359375 -0.24749614298343658 0.027450980392156862
37.542938232421875 153.6417694091797 8.235873222351074 0.30980392156862746
3.210266590118408 122.07125091552734 -0.03620763495564461 0.050980392156862744
37.49028015136719 153.66586303710938 9.519126892089844 0.1568627450980392
3.1612091064453125 122.03828430175781 0.16896028816699982 0.08235294117647059
37.34537887573242 153.606201171875 10.798970222473145 0.1450980392156863
0.03744003549218178 119.15884399414062 -0.41591909527778625 0.027450980392156862
5.572680950164795 124.15062713623047 -0.2397315353155136 0.03137254901960784
0.19114674627780914 119.29680633544922 -0.42262575030326843 0.0196078431372549
6.154082775115967 124.68150329589844 -0.10398043692111969 0.0392156862745098
0.36451247334480286 119.45214080810547 -0.4352496862411499 0.03137254901960784
6.136067867279053 124.68110656738281 0.1790635883808136 0.023529411764705882
0.5368232131004333 119.60716247558594 -0.43636354804039 0.023529411764705882
6.120626449584961 124.68299102783203 0.4613345265388489 0.023529411764705882
0.7323869466781616 119.78289794921875 -0.44143807888031006 0.023529411764705882
6.095693588256836 124.67616271972656 0.7407143115997314 0.0392156862745098
0.9510850310325623 119.97925567626953 -0.4499068558216095 0.03529411764705882
13.728979110717773 131.5221710205078 0.3066076934337616 0.01568627450980392
1.1921660900115967 120.19578552246094 -0.45808085799217224 0.03137254901960784
15.430997848510742 133.07705688476562 0.7182066440582275 0.01568627450980392
1.4617176055908203 120.43795013427734 -0.46603745222091675 0.03137254901960784
1.7566996812820435 120.70313262939453 -0.4716053605079651 0.03529411764705882
27.887285232543945 144.35205078125 1.859976887702942 0.09411764705882353
2.086040735244751 120.99932861328125 -0.4756329357624054 0.0392156862745098
2.4959144592285156 121.36719512939453 -0.49419015645980835 0.043137254901960784
2.8805885314941406 121.71430969238281 -0.47819778323173523 0.0196078431372549
3.263767719268799 122.06141662597656 -0.4382503032684326 0.00784313725490196
3.233766555786133 122.05684661865234 -0.03695162758231163 0.047058823529411764
3.1860592365264893 122.02536010742188 0.16797462105751038 0.09411764705882353
37.56331253051758 153.5621337890625 10.82823371887207 0.1450980392156863
0.05115146562457085 119.15626525878906 -0.4207559823989868 0.03137254901960784
5.596145153045654 124.12742614746094 -0.23873060941696167 0.027450980392156862
0.2001085728406906 119.28939819335938 -0.42316707968711853 0.0196078431372549
6.2161030769348145 124.68922424316406 -0.11089769005775452 0.03529411764705882
0.37527868151664734 119.44536590576172 -0.43669945001602173 0.03137254901960784
6.193697452545166 124.68509674072266 0.17416596412658691 0.027450980392156862
0.5427089333534241 119.5953140258789 -0.4339565634727478 0.023529411764705882
6.175322532653809 124.68450164794922 0.4579612910747528 0.023529411764705882
0.7428362965583801 119.77392578125 -0.4417670667171478 0.027450980392156862
6.151869773864746 124.67916107177734 0.7381222248077393 0.0392156862745098
0.9635022282600403 119.97084045410156 -0.45101165771484375 0.03529411764705882
13.777178764343262 131.4774169921875 0.3089165985584259 0.01568627450980392
1.2010972499847412 120.18309783935547 -0.45662713050842285 0.03137254901960784
15.43900203704834 132.9873809814453 0.7236737012863159 0.07450980392156863
1.4755457639694214 120.42806243896484 -0.4668872356414795 0.03137254901960784
1.7671103477478027 120.6887435913086 -0.4701444208621979 0.03529411764705882
15.955692291259766 133.51268005371094 1.8524837493896484 0.054901960784313725
2.0958971977233887 120.98271179199219 -0.473478764295578 0.03529411764705882
2.508272171020508 121.3505859375 -0.4926939308643341 0.043137254901960784
2.9011595249176025 121.70281982421875 -0.47965067625045776 0.0196078431372549
3.2636704444885254 122.02986145019531 -0.43122225999832153 0.00784313725490196
3.7522032260894775 122.46849822998047 -0.40322303771972656 0.011764705882352941
3.265629291534424 122.05339813232422 -0.0410214439034462 0.023529411764705882
3.2178709506988525 122.02214050292969 0.1643952578306198 0.10196078431372549
37.75998306274414 153.523193359375 10.854803085327148 0.1450980392156863
0.05664048343896866 119.14501190185547 -0.4181356430053711 0.027450980392156862
5.620639324188232 124.09996032714844 -0.23719781637191772 0.03137254901960784
0.20731858909130096 119.27872467041016 -0.42161622643470764 0.0196078431372549
6.272120952606201 124.68572235107422 -0.11569283902645111 0.03529411764705882
0.3803282082080841 119.43183898925781 -0.4332018792629242 0.03137254901960784
6.252714157104492 124.68438720703125 0.16973182559013367 0.027450980392156862
0.5509007573127747 119.5834732055664 -0.43242326378822327 0.027450980392156862
6.234363079071045 124.68396759033203 0.45454421639442444 0.0196078431372549
0.7488819360733032 119.75908660888672 -0.4384484589099884 0.03137254901960784
6.212393283843994 124.68011474609375 0.7355326414108276 0.03529411764705882
0.9674074649810791 119.95287322998047 -0.4460708498954773 0.027450980392156862
13.88719654083252 131.47695922851562 0.3063250780105591 0.01568627450980392
1.2181371450424194 120.17497253417969 -0.45915308594703674 0.043137254901960784
15.41336441040039 132.85702514648438 0.731848418712616 0.07058823529411765
1.4850397109985352 120.41187286376953 -0.46458157896995544 0.027450980392156862
1.7830952405929565 120.6764144897461 -0.4707709550857544 0.0392156862745098
28.42426109313965 144.48365783691406 1.8711761236190796 0.11764705882352941
2.1185734272003174 120.97423553466797 -0.47668471932411194 0.0392156862745098
2.525057077407837 121.33460998535156 -0.49237096309661865 0.043137254901960784
2.9191172122955322 121.68555450439453 -0.4792107045650482 0.0196078431372549
3.2986888885498047 122.02526092529297 -0.4367099702358246 0.00784313725490196
3.769775629043579 122.44588470458984 -0.401528000831604 0.011764705882352941
3.277364730834961 122.0285415649414 -0.03808383271098137 0.058823529411764705
3.253030300140381 122.01799011230469 0.1605246216058731 0.17647058823529413
37.99139404296875 153.48899841308594 10.887097358703613 0.14901960784313725
0.0668652281165123 119.13858795166016 -0.41977009177207947 0.03137254901960784
5.643754959106445 124.07386016845703 -0.23574340343475342 0.03137254901960784
