5.669630527496338 117.8391342163086 0.9015024900436401 0.011764705882352941
1.7033771276474 117.33023071289062 -0.35224616527557373 0.023529411764705882
17.64158058166504 119.15232849121094 0.05035414174199104 0.0196078431372549
1.9619603157043457 117.35977172851562 -0.3461993932723999 0.027450980392156862
20.00587272644043 119.43538665771484 0.37558713555336 0.06274509803921569
2.2458417415618896 117.39215850830078 -0.3404192626476288 0.027450980392156862
20.05045509338379 119.46588134765625 0.9048641324043274 0.0784313725490196
2.5649361610412598 117.42845153808594 -0.33617058396339417 0.047058823529411764
20.05503273010254 119.49213409423828 1.440048336982727 0.047058823529411764
2.9126739501953125 117.46821594238281 -0.32718026638031006 0.01568627450980392
5.685685157775879 117.88823699951172 1.8847768306732178 0.011764705882352941
3.284759283065796 117.51103210449219 -0.31207188963890076 0.01568627450980392
5.7646284103393555 117.90669250488281 2.082975149154663 0.0
3.7118217945098877 117.55999755859375 -0.2982873320579529 0.03529411764705882
4.253841400146484 117.62127685546875 -0.29889604449272156 0.01568627450980392
4.909785747528076 117.6950454711914 -0.30769026279449463 0.01568627450980392
5.5443267822265625 117.76811981201172 -0.2805074155330658 0.00784313725490196
6.315370559692383 117.85659790039062 -0.25420206785202026 0.011764705882352941
7.262182235717773 117.96483612060547 -0.23034539818763733 0.01568627450980392
5.652232646942139 117.80848693847656 0.3051169812679291 0.011764705882352941
1.0363051891326904 117.24205780029297 -0.35700365900993347 0.027450980392156862
9.899208068847656 118.22396087646484 -0.16499647498130798 0.011764705882352941
1.2445443868637085 117.26492309570312 -0.35684671998023987 0.01568627450980392
11.701224327087402 118.42445373535156 -0.10817419737577438 0.01568627450980392
1.477264165878296 117.29026794433594 -0.3608318865299225 0.058823529411764705
5.674696922302246 117.81163024902344 0.9026145339012146 0.00784313725490196
1.710355281829834 117.31616973876953 -0.35420531034469604 0.0196078431372549
5.659379005432129 117.8195571899414 1.1025996208190918 0.011764705882352941
1.969093680381775 117.34486389160156 -0.3479909896850586 0.023529411764705882
5.678966045379639 117.83106994628906 1.2973973751068115 0.027450980392156862
2.2476603984832764 117.37583923339844 -0.33963483572006226 0.027450980392156862
5.7039875984191895 117.84318542480469 1.4923579692840576 0.011764705882352941
2.5668723583221436 117.41107940673828 -0.3353353440761566 0.047058823529411764
20.059459686279297 119.41631317138672 1.4437404870986938 0.047058823529411764
2.91287899017334 117.44951629638672 -0.32557445764541626 0.01568627450980392
5.714627265930176 117.86328125 1.8862725496292114 0.0196078431372549
3.288837432861328 117.49143981933594 -0.31179362535476685 0.01568627450980392
3.7122912406921387 117.53864288330078 -0.2966415584087372 0.03137254901960784
4.271636486053467 117.59974670410156 -0.3024585545063019 0.023529411764705882
4.922173500061035 117.67082214355469 -0.3091757297515869 0.01568627450980392
5.572438716888428 117.74331665039062 -0.2856203317642212 0.011764705882352941
5.644121170043945 117.7700424194336 0.10682285577058792 1.0
5.680761814117432 117.78343200683594 0.3017933964729309 0.011764705882352941
1.0427324771881104 117.23080444335938 -0.3594680428504944 0.023529411764705882
9.887749671936035 118.18291473388672 -0.1606079638004303 0.011764705882352941
1.237152099609375 117.25190734863281 -0.35141706466674805 0.0196078431372549
5.644905090332031 117.7725830078125 0.7101364731788635 0.011764705882352941
1.4733760356903076 117.27679443359375 -0.35742485523223877 0.0784313725490196
14.334274291992188 118.66172790527344 -0.05712321028113365 0.00784313725490196
1.7046961784362793 117.30179595947266 -0.3500015139579773 0.023529411764705882
17.622291564941406 119.01771545410156 0.059598714113235474 0.0196078431372549
1.9706716537475586 117.33026885986328 -0.34729015827178955 0.023529411764705882
20.035856246948242 119.2903823852539 0.38173604011535645 0.0392156862745098
2.25663685798645 117.36099243164062 -0.3420964777469635 0.03137254901960784
5.688952445983887 117.81493377685547 1.4943495988845825 0.01568627450980392
2.5704970359802246 117.39476776123047 -0.3353026807308197 0.0392156862745098
20.063207626342773 119.3444595336914 1.4472392797470093 0.047058823529411764
2.9129161834716797 117.43180084228516 -0.3240162134170532 0.011764705882352941
20.0712890625 119.37081146240234 1.9781880378723145 0.027450980392156862
3.288987398147583 117.4725341796875 -0.3102223575115204 0.01568627450980392
5.697093963623047 117.84408569335938 2.0834219455718994 0.0
3.7201344966888428 117.51908874511719 -0.29756060242652893 0.03529411764705882
4.268280982971191 117.57740020751953 -0.2996613681316376 0.0196078431372549
4.9228363037109375 117.64678192138672 -0.30749109387397766 0.01568627450980392
5.569450855255127 117.71686553955078 -0.28289470076560974 0.00784313725490196
5.885190486907959 117.75686645507812 -0.15053145587444305 0.023529411764705882
5.648899555206299 117.74408721923828 0.10767537355422974 0.01568627450980392
8.448884010314941 118.02760314941406 -0.20177792012691498 0.011764705882352941
1.045681118965149 117.21925354003906 -0.3599151074886322 0.027450980392156862
9.887957572937012 118.1430892944336 -0.15809257328510284 0.011764705882352941
1.245423674583435 117.24015045166016 -0.3546963632106781 0.01568627450980392
11.708874702453613 118.3339614868164 -0.10357332229614258 0.01568627450980392
1.4782782793045044 117.2640380859375 -0.3586524426937103 0.058823529411764705
5.6743597984313965 117.75851440429688 0.9057948589324951 0.011764705882352941
1.7079288959503174 117.2881851196289 -0.350226491689682 0.0196078431372549
17.63294792175293 118.95438385009766 0.06231168285012245 0.0196078431372549
1.9649730920791626 117.31509399414062 -0.3432177007198334 0.023529411764705882
20.027454376220703 119.21747589111328 0.38617098331451416 0.0392156862745098
2.2527835369110107 117.34505462646484 -0.33895057439804077 0.027450980392156862
20.062143325805664 119.24647521972656 0.9158260822296143 0.07450980392156863
2.5740714073181152 117.37844848632812 -0.33526989817619324 0.043137254901960784
5.654566764831543 117.79425811767578 1.6935359239578247 0.00784313725490196
2.911036491394043 117.41393280029297 -0.3217446208000183 0.011764705882352941
5.6685380935668945 117.8050537109375 1.8884761333465576 0.00784313725490196
3.3003385066986084 117.4546127319336 -0.3126789927482605 0.0196078431372549
5.695886135101318 117.81729125976562 2.084569215774536 0.011764705882352941
3.7184598445892334 117.49867248535156 -0.2953418791294098 0.027450980392156862
4.2724761962890625 117.5557632446289 -0.29919761419296265 0.0196078431372549
4.936851501464844 117.62395477294922 -0.30957549810409546 0.01568627450980392
5.591470241546631 117.69273376464844 -0.2865869998931885 0.011764705882352941
6.4042887687683105 117.77764129638672 -0.26842746138572693 0.011764705882352941
7.297863960266113 117.87181854248047 -0.2309994101524353 0.01568627450980392
5.645219802856445 117.72700500488281 0.3118176758289337 0.011764705882352941
1.0451483726501465 117.20743560791016 -0.35834699869155884 0.023529411764705882
5.6663336753845215 117.71221923828125 0.5115672945976257 0.011764705882352941
1.2362028360366821 117.22706604003906 -0.34830331802368164 0.01568627450980392
5.672026634216309 117.7222900390625 0.7097322940826416 0.011764705882352941
1.472536325454712 117.25045776367188 -0.3543217182159424 0.054901960784313725
5.6829705238342285 117.7328109741211 0.9063974022865295 0.011764705882352941
1.7075414657592773 117.27427673339844 -0.3486810624599457 0.023529411764705882
5.669622421264648 117.74105834960938 1.1062041521072388 0.011764705882352941
1.9700729846954346 117.30079650878906 -0.34420397877693176 0.01568627450980392
5.687248706817627 117.75216674804688 1.3011842966079712 0.027450980392156862
2.259840488433838 117.33000946044922 -0.34060972929000854 0.027450980392156862
5.712296485900879 117.76403045654297 1.4961570501327515 0.01568627450980392
2.579439401626587 117.36225891113281 -0.335994690656662 0.047058823529411764
5.714943885803223 117.77376556396484 1.6938306093215942 0.011764705882352941
2.914684295654297 117.39653778076172 -0.32161745429039 0.011764705882352941
5.726931095123291 117.78437805175781 1.8901047706604004 0.01568627450980392
3.304126262664795 117.43600463867188 -0.31244975328445435 0.0196078431372549
3.7261812686920166 117.47907257080078 -0.29626011848449707 0.027450980392156862
4.268978118896484 117.53345489501953 -0.29640376567840576 0.01568627450980392
4.943122863769531 117.60038757324219 -0.3095049262046814 0.01568627450980392
5.5767364501953125 117.66524505615234 -0.28090307116508484 0.00784313725490196
5.662112236022949 117.69247436523438 0.10857553780078888 1.0
5.665519714355469 117.70246887207031 0.30985915660858154 0.011764705882352941
1.0480246543884277 117.19586181640625 -0.3587939143180847 0.023529411764705882
9.905705451965332 118.0650634765625 -0.15586234629154205 0.00784313725490196
1.249639868736267 117.21563720703125 -0.3544820547103882 0.01568627450980392
5.654872417449951 117.69425201416016 0.7136373519897461 0.011764705882352941
1.4808940887451172 117.23793029785156 -0.3574010729789734 0.058823529411764705
14.334752082824707 118.5 -0.04768719524145126 0.00784313725490196
1.7053216695785522 117.26024627685547 -0.3462522625923157 0.027450980392156862
17.64374542236328 118.82664489746094 0.0685989186167717 0.0196078431372549
1.964276909828186 117.2856674194336 -0.34013473987579346 0.023529411764705882
20.047706604003906 119.07543182373047 0.392630010843277 0.0392156862745098
2.2522308826446533 117.31381225585938 -0.335865318775177 0.027450980392156862
5.687049388885498 117.73497009277344 1.4985371828079224 0.011764705882352941
2.5810673236846924 117.34574890136719 -0.335203617811203 0.043137254901960784
20.0750789642334 119.12910461425781 1.457685947418213 0.06274509803921569
2.9126908779144287 117.3786849975586 -0.319347620010376 0.011764705882352941
20.057296752929688 119.15280151367188 1.9882344007492065 0.027450980392156862
3.3116133213043213 117.41767120361328 -0.3135613799095154 0.0196078431372549
5.701172828674316 117.76454162597656 2.0870983600616455 0.01568627450980392
3.7243776321411133 117.45865631103516 -0.2940429151058197 0.027450980392156862
4.278756618499756 117.51227569580078 -0.2976870536804199 0.0196078431372549
4.947402477264404 117.57661437988281 -0.30889615416526794 0.01568627450980392
5.590878963470459 117.64031219482422 -0.28261855244636536 0.00784313725490196
5.644815921783447 117.6548080444336 -0.08938372135162354 1.0
5.62956428527832 117.66321563720703 0.11707029491662979 0.011764705882352941
91.09684753417969 126.81124114990234 17.964862823486328 0.24705882352941178
8.471318244934082 117.92382049560547 -0.1988903135061264 0.011764705882352941
1.042244553565979 117.18370819091797 -0.3542052209377289 0.027450980392156862
9.913412094116211 118.02589416503906 -0.15459074079990387 0.0196078431372549
1.2543102502822876 117.20353698730469 -0.3558242917060852 0.0196078431372549
11.720267295837402 118.1982421875 -0.09681291878223419 0.01568627450980392
1.4856774806976318 117.2251205444336 -0.358627051115036 0.058823529411764705
5.668269634246826 117.678466796875 0.9111006259918213 0.00784313725490196
1.7155821323394775 117.24710845947266 -0.35001468658447266 0.023529411764705882
17.685556411743164 118.76605224609375 0.06856070458889008 0.0196078431372549
1.9692872762680054 117.27134704589844 -0.34112122654914856 0.027450980392156862
20.014760971069336 119.00045776367188 0.3985598087310791 0.0392156862745098
2.251880407333374 117.2981948852539 -0.33432427048683167 0.027450980392156862
20.04945182800293 119.0290298461914 0.9274460077285767 0.07450980392156863
2.580796957015991 117.3291015625 -0.3336556851863861 0.043137254901960784
5.684232234954834 117.71758270263672 1.6969494819641113 0.011764705882352941
2.919955253601074 117.36155700683594 -0.32064852118492126 0.011764705882352941
5.674324989318848 117.72600555419922 1.8922419548034668 1.0
3.3096508979797363 117.39857482910156 -0.3113202154636383 0.0196078431372549
5.695729732513428 117.73738861083984 2.0881216526031494 0.01568627450980392
3.7319774627685547 117.43899536132812 -0.2949596345424652 0.023529411764705882
4.280840873718262 117.49043273925781 -0.29664111137390137 0.027450980392156862
4.9516072273254395 117.5528335571289 -0.3082870543003082 0.01568627450980392
5.59528923034668 117.61450958251953 -0.2818678319454193 0.00784313725490196
6.408840656280518 117.6917495727539 -0.26343220472335815 0.011764705882352941
91.15225219726562 126.41159057617188 15.739021301269531 0.24705882352941178
5.657435417175293 117.63925170898438 0.11309545487165451 0.01568627450980392
5.627467632293701 117.64635467529297 0.3202112019062042 0.00784313725490196
1.0484963655471802 117.17235565185547 -0.35666707158088684 0.03137254901960784
5.677783012390137 117.63385009765625 0.5147160887718201 0.011764705882352941
1.246712565422058 117.19062805175781 -0.35040223598480225 0.0196078431372549
5.689422130584717 117.64434814453125 0.7121840715408325 0.011764705882352941
1.4833451509475708 117.2118148803711 -0.3561507761478424 0.0784313725490196
5.694462299346924 117.65425872802734 0.9097394943237305 0.011764705882352941
1.7168548107147217 117.23331451416016 -0.34935468435287476 0.023529411764705882
5.663247585296631 117.66106414794922 1.1111783981323242 0.00784313725490196
1.9706335067749023 117.25675964355469 -0.3404231071472168 0.03137254901960784
2.2624518871307373 117.28335571289062 -0.33758193254470825 0.027450980392156862
5.7138872146606445 117.68425750732422 1.5001885890960693 0.011764705882352941
2.574934244155884 117.31206512451172 -0.32983794808387756 0.0392156862745098
5.708568096160889 117.6932373046875 1.697853446006775 0.011764705882352941
2.923440456390381 117.3441162109375 -0.3205212950706482 0.011764705882352941
5.7106099128723145 117.70278930664062 1.8937392234802246 0.0196078431372549
3.303868055343628 117.37922668457031 -0.3077406883239746 0.01568627450980392
5.70811653137207 117.7119369506836 2.0896856784820557 0.03137254901960784
3.7376224994659424 117.41915893554688 -0.29524916410446167 0.027450980392156862
4.284764766693115 117.46873474121094 -0.296177476644516 0.03137254901960784
4.9518961906433105 117.52873229980469 -0.30660396814346313 0.01568627450980392
5.601550579071045 117.5888442993164 -0.28160998225212097 0.00784313725490196
91.12236022949219 126.11096954345703 15.744672775268555 0.24705882352941178
5.677426338195801 117.61449432373047 0.11073384433984756 0.00784313725490196
5.669104099273682 117.62347412109375 0.3143385946750641 0.011764705882352941
91.03522491455078 126.31855773925781 20.2496280670166 0.24705882352941178
1.0530461072921753 117.16020965576172 -0.3580898642539978 0.027450980392156862
9.918805122375488 117.94447326660156 -0.15039411187171936 0.011764705882352941
1.2531143426895142 117.17794799804688 -0.3526785671710968 0.0196078431372549
5.660275936126709 117.61402893066406 0.7177321910858154 0.011764705882352941
1.4828033447265625 117.19791412353516 -0.3545663356781006 0.054901960784313725
14.359705924987793 118.33757019042969 -0.04096485301852226 0.00784313725490196
1.7109895944595337 117.21829986572266 -0.345123291015625 0.0196078431372549
17.697463989257812 118.63462829589844 0.07484696805477142 0.0196078431372549
1.9810563325881958 117.241943359375 -0.3438947796821594 0.023529411764705882
20.032007217407227 118.85432434082031 0.40531593561172485 0.0392156862745098
2.2620797157287598 117.26686096191406 -0.3359997272491455 0.027450980392156862
5.690483093261719 117.6541748046875 1.5025445222854614 0.011764705882352941
2.583871841430664 117.29515838623047 -0.3320322334766388 0.050980392156862744
20.067325592041016 118.9082260131836 1.468587875366211 0.06274509803921569
2.9232282638549805 117.32542419433594 -0.318920373916626 0.011764705882352941
20.087387084960938 118.93531799316406 1.998754620552063 0.0392156862745098
3.3037524223327637 117.3592758178711 -0.30612316727638245 0.01568627450980392
5.702633857727051 117.683349609375 2.090775728225708 0.011764705882352941
3.735725164413452 117.39762878417969 -0.292980819940567 0.027450980392156862
4.283001899719238 117.44538116455078 -0.29391172528266907 0.011764705882352941
4.9541473388671875 117.50345611572266 -0.30539512634277344 0.01568627450980392
5.602060317993164 117.56126403808594 -0.27980631589889526 0.00784313725490196
5.671616554260254 117.57640838623047 -0.09002725034952164 0.01568627450980392
5.6642656326293945 117.58557891845703 0.11526854336261749 0.01568627450980392
8.498836517333984 117.81822967529297 -0.19697287678718567 0.011764705882352941
1.0557763576507568 117.14859771728516 -0.3585365414619446 0.03137254901960784
9.922196388244629 117.90492248535156 -0.14850452542304993 0.0196078431372549
1.252423882484436 117.16549682617188 -0.3511228561401367 0.0196078431372549
11.75430679321289 118.06178283691406 -0.0931057259440422 0.011764705882352941
1.482153296470642 117.18474578857422 -0.35301706194877625 0.054901960784313725
5.6694655418396 117.59778594970703 0.9155882596969604 0.00784313725490196
1.713962435722351 117.20462799072266 -0.34534814953804016 0.0196078431372549
17.730756759643555 118.57288360595703 0.07551001757383347 0.0196078431372549
1.978689432144165 117.22708892822266 -0.3415130078792572 0.0196078431372549
20.01226043701172 118.78091430664062 0.4103444516658783 0.058823529411764705
2.261580467224121 117.25123596191406 -0.3344597816467285 0.027450980392156862
20.08480453491211 118.81218719482422 0.9372501373291016 0.07450980392156863
2.5815935134887695 117.27839660644531 -0.32973015308380127 0.0392156862745098
5.701357841491699 117.6379623413086 1.700637698173523 0.011764705882352941
2.9210078716278076 117.3075942993164 -0.3166543245315552 0.011764705882352941
20.091527938842773 118.86360931396484 2.0021581649780273 0.0392156862745098
3.309124231338501 117.34074401855469 -0.30656471848487854 0.01568627450980392
5.72083044052124 117.6583251953125 2.092525005340576 0.0196078431372549
3.729871988296509 117.3769760131836 -0.2895161509513855 0.027450980392156862
4.284876346588135 117.42353057861328 -0.2928675413131714 0.01568627450980392
4.960045337677002 117.47976684570312 -0.3053232729434967 0.01568627450980392
5.61202335357666 117.53582763671875 -0.28053098917007446 0.00784313725490196
6.432156562805176 117.60570526123047 -0.2628338932991028 0.011764705882352941
5.582492351531982 117.5531234741211 0.1337631195783615 1.0
8.503809928894043 117.78328704833984 -0.19565194845199585 0.011764705882352941
1.0515661239624023 117.1365966796875 -0.35495853424072266 0.027450980392156862
5.694526672363281 117.55431365966797 0.5170052647590637 0.011764705882352941
1.2499457597732544 117.15296936035156 -0.3486028015613556 0.01568627450980392
5.678528785705566 117.56262969970703 0.718393862247467 0.011764705882352941
1.493855357170105 117.17227935791016 -0.35794126987457275 0.01568627450980392
5.6874918937683105 117.57274627685547 0.9151040315628052 0.00784313725490196
1.7258492708206177 117.19145202636719 -0.3499896824359894 0.01568627450980392
5.6741042137146 117.58118438720703 1.1146682500839233 0.00784313725490196
1.9889534711837769 117.21300506591797 -0.3450208604335785 0.0196078431372549
5.711648464202881 117.59346008300781 1.308190941810608 0.023529411764705882
2.26469087600708 117.23583984375 -0.33451807498931885 0.027450980392156862
5.696907997131348 117.6016616821289 1.5049822330474854 0.011764705882352941
2.5829572677612305 117.26188659667969 -0.32894188165664673 0.0392156862745098
5.729447841644287 117.6136703491211 1.7014884948730469 0.01568627450980392
2.922459602355957 117.2900161743164 -0.31581518054008484 0.011764705882352941
5.699599742889404 117.62060546875 1.8974612951278687 0.011764705882352941
3.310676336288452 117.32195281982422 -0.3056674003601074 0.01568627450980392
5.717039108276367 117.63137817382812 2.0936038494110107 0.03137254901960784
3.7315332889556885 117.35685729980469 -0.288555771112442 0.03137254901960784
4.2943196296691895 117.40217590332031 -0.2941470742225647 0.011764705882352941
4.962025165557861 117.4557876586914 -0.3041785955429077 0.01568627450980392
5.61223840713501 117.5096664428711 -0.2787972688674927 0.00784313725490196
5.690176010131836 117.53469848632812 0.11336423456668854 0.01568627450980392
8.514559745788574 117.7487564086914 -0.19539688527584076 0.011764705882352941
1.0611282587051392 117.12532043457031 -0.3594290614128113 0.023529411764705882
5.67099142074585 117.52619934082031 0.5222747921943665 0.00784313725490196
1.2649192810058594 117.141357421875 -0.3557361960411072 0.01568627450980392
5.660839080810547 117.53495025634766 0.7222760319709778 0.00784313725490196
1.4948956966400146 117.15918731689453 -0.3573164641857147 0.01568627450980392
14.37692928314209 118.17736053466797 -0.03373577073216438 0.00784313725490196
1.7215718030929565 117.17733764648438 -0.34668105840682983 0.0196078431372549
17.761011123657227 118.44619750976562 0.07992210239171982 0.0196078431372549
1.990116834640503 117.19835662841797 -0.34432193636894226 0.023529411764705882
20.033756256103516 118.63916778564453 0.416524201631546 0.0392156862745098
2.267754077911377 117.22042846679688 -0.33457642793655396 0.027450980392156862
5.700995445251465 117.57545471191406 1.5061615705490112 0.011764705882352941
2.5824201107025146 117.24526977539062 -0.3273981809616089 0.03137254901960784
20.067092895507812 118.69242858886719 1.4791043996810913 0.06274509803921569
2.927586555480957 117.27265930175781 -0.3164011240005493 0.011764705882352941
20.103120803833008 118.72050476074219 2.0089876651763916 0.0392156862745098
3.3140506744384766 117.30326080322266 -0.30543941259384155 0.01568627450980392
5.713159084320068 117.6044692993164 2.094680070877075 0.03137254901960784
3.7350268363952637 117.33685302734375 -0.2882210612297058 0.027450980392156862
4.290327548980713 117.37992858886719 -0.2913613021373749 0.01568627450980392
4.971621036529541 117.43230438232422 -0.30517837405204773 0.01568627450980392
5.61237096786499 117.4835205078125 -0.2770645022392273 0.00784313725490196
5.683949947357178 117.49812316894531 -0.08760849386453629 0.0196078431372549
5.662938594818115 117.50642395019531 0.12062404304742813 0.00784313725490196
8.52324104309082 117.71402740478516 -0.1947852522134781 0.011764705882352941
1.046481728553772 117.11285400390625 -0.3498191237449646 0.011764705882352941
9.947397232055664 117.78729248046875 -0.14531001448631287 0.0196078431372549
1.2623642683029175 117.1288070678711 -0.35321637988090515 0.01568627450980392
5.6430583000183105 117.50738525390625 0.7261518239974976 0.00784313725490196
1.49235200881958 117.14590454101562 -0.35484379529953003 0.027450980392156862
5.677703857421875 117.5191650390625 0.9191291332244873 0.0
1.7297948598861694 117.16389465332031 -0.34955376386642456 0.0196078431372549
17.761930465698242 118.38175201416016 0.08332119137048721 0.0196078431372549
1.9876099824905396 117.18350982666016 -0.3419420123100281 0.023529411764705882
20.031230926513672 118.56727600097656 0.4204191267490387 0.058823529411764705
2.2707695960998535 117.20500183105469 -0.3346347212791443 0.027450980392156862
20.052013397216797 118.59403991699219 0.9494217038154602 0.07450980392156863
2.5836799144744873 117.22875213623047 -0.32661083340644836 0.03137254901960784
5.70166015625 117.55838012695312 1.7045058012008667 0.011764705882352941
2.923330783843994 117.25474548339844 -0.3134256899356842 0.011764705882352941
20.092626571655273 118.64772033691406 2.0122759342193604 0.0392156862745098
3.3173668384552 117.28456115722656 -0.3052111566066742 0.01568627450980392
5.715174674987793 117.57804107666016 2.095939874649048 0.03137254901960784
3.7460455894470215 117.31727600097656 -0.290384978055954 0.023529411764705882
4.301548004150391 117.35862731933594 -0.2932193875312805 0.011764705882352941
4.975375652313232 117.40840148925781 -0.30456915497779846 0.011764705882352941
5.620161056518555 117.45785522460938 -0.277296245098114 0.00784313725490196
6.446755409240723 117.5203857421875 -0.2605215013027191 0.01568627450980392
5.649293422698975 117.47920227050781 0.1250738948583603 1.0
8.525922775268555 117.67886352539062 -0.19310882687568665 0.011764705882352941
1.0629284381866455 117.10118103027344 -0.35827895998954773 0.01568627450980392
5.6986799240112305 117.47377014160156 0.5211470723152161 0.01568627450980392
1.2563167810440063 117.11543273925781 -0.34873536229133606 0.01568627450980392
5.700472831726074 117.48336791992188 0.7201228141784668 0.011764705882352941
1.502220630645752 117.13249969482422 -0.3588045537471771 0.023529411764705882
5.667825222015381 117.49064636230469 0.9217478036880493 0.00784313725490196
1.7290682792663574 117.14920043945312 -0.3479752838611603 0.027450980392156862
5.68220853805542 117.50102996826172 1.1183257102966309 0.00784313725490196
1.9959900379180908 117.16840362548828 -0.34456679224967957 0.023529411764705882
2.268303871154785 117.18841552734375 -0.3322572112083435 0.027450980392156862
5.707032680511475 117.5213851928711 1.5086675882339478 0.011764705882352941
2.581254482269287 117.21112060546875 -0.32426947355270386 0.03529411764705882
5.699703216552734 117.5302505493164 1.7058930397033691 0.011764705882352941
2.935884714126587 117.23677825927734 -0.31681254506111145 0.01568627450980392
5.695766925811768 117.53927612304688 1.901224970817566 0.011764705882352941
3.3169355392456055 117.26458740234375 -0.3035964071750641 0.01568627450980392
5.7172112464904785 117.55014038085938 2.097269058227539 0.043137254901960784
3.749497413635254 117.29609680175781 -0.2899952232837677 0.023529411764705882
4.303236961364746 117.33549499511719 -0.2921176254749298 0.011764705882352941
4.967609405517578 117.38248443603516 -0.30068421363830566 0.011764705882352941
5.6241044998168945 117.43047332763672 -0.27647677063941956 0.00784313725490196
6.092798233032227 117.46861267089844 -0.17762267589569092 0.03137254901960784
5.68847131729126 117.4538803100586 0.11879274249076843 0.01568627450980392
8.534527778625488 117.64210510253906 -0.1924031376838684 0.011764705882352941
1.063747763633728 117.08943939208984 -0.35771995782852173 0.01568627450980392
5.668957233428955 117.44552612304688 0.527326226234436 0.011764705882352941
1.2554278373718262 117.10301208496094 -0.34718307852745056 0.01568627450980392
5.676583766937256 117.4554443359375 0.7247822880744934 1.0
1.5137698650360107 117.11983489990234 -0.3637212812900543 0.0196078431372549
14.365063667297363 118.01222229003906 -0.023349450901150703 0.00784313725490196
1.7389992475509644 117.1357650756836 -0.35172799229621887 0.0196078431372549
17.819082260131836 118.25289154052734 0.08553551882505417 0.0196078431372549
1.9970133304595947 117.15373229980469 -0.3438684344291687 0.0196078431372549
5.6718292236328125 117.48326110839844 1.3162504434585571 0.00784313725490196
2.2730512619018555 117.17305755615234 -0.3331138789653778 0.027450980392156862
5.704883575439453 117.49473571777344 1.5100771188735962 0.011764705882352941
2.5842556953430176 117.1947021484375 -0.3242388665676117 0.03137254901960784
20.071063995361328 118.4732437133789 1.4896879196166992 0.06274509803921569
2.9296464920043945 117.21878051757812 -0.3131275475025177 0.011764705882352941
20.111114501953125 118.50117492675781 2.0193445682525635 0.054901960784313725
3.3257784843444824 117.24615478515625 -0.3053727447986603 0.01568627450980392
5.715068340301514 117.52342224121094 2.098402261734009 0.050980392156862744
3.741417169570923 117.27542114257812 -0.28591397404670715 0.01568627450980392
4.304765224456787 117.31358337402344 -0.2910745441913605 0.01568627450980392
4.969283580780029 117.35848236083984 -0.2995419204235077 0.011764705882352941
5.620114326477051 117.40408325195312 -0.2737659215927124 0.00784313725490196
5.701489448547363 117.41854095458984 -0.08645486831665039 0.027450980392156862
5.635526657104492 117.42440795898438 0.13123004138469696 1.0
8.538947105407715 117.60702514648438 -0.19108182191848755 0.011764705882352941
1.0558903217315674 117.0773696899414 -0.35213738679885864 0.011764705882352941
9.975587844848633 117.66729736328125 -0.1426204890012741 0.0196078431372549
1.2667559385299683 117.09107208251953 -0.3523809313774109 0.01568627450980392
5.672395706176758 117.4288330078125 0.7268164753913879 0.011764705882352941
1.5111008882522583 117.10653686523438 -0.3612489402294159 0.01568627450980392
5.703160285949707 117.44005584716797 0.9207944273948669 0.0
1.7381291389465332 117.121826171875 -0.35018664598464966 0.01568627450980392
17.877073287963867 118.19182586669922 0.08402838557958603 0.0196078431372549
1.9979908466339111 117.13905334472656 -0.3431704342365265 0.01568627450980392
20.044458389282227 118.3492431640625 0.4309142827987671 0.08235294117647059
2.2740862369537354 117.15751647949219 -0.3323746621608734 0.023529411764705882
20.083208084106445 118.37687683105469 0.9591933488845825 0.054901960784313725
2.5964572429656982 117.1786880493164 -0.3279816508293152 0.03137254901960784
5.719264030456543 117.4785385131836 1.7081632614135742 0.011764705882352941
2.930819272994995 117.201171875 -0.3122902810573578 0.011764705882352941
20.107900619506836 118.42904663085938 2.022684335708618 0.0392156862745098
3.3270342350006104 117.22731018066406 -0.30447638034820557 0.01568627450980392
5.706855297088623 117.49633026123047 2.0993452072143555 0.06274509803921569
3.756044626235962 117.25592041015625 -0.2893225848674774 0.023529411764705882
4.300490856170654 117.29137420654297 -0.28829407691955566 0.01568627450980392
4.980505466461182 117.33497619628906 -0.30107417702674866 0.011764705882352941
5.627657890319824 117.37834167480469 -0.27399665117263794 0.00784313725490196
6.460659503936768 117.43325805664062 -0.2581327259540558 0.01568627450980392
5.643136501312256 117.39862060546875 0.1312740594148636 0.011764705882352941
8.549154281616211 117.57225799560547 -0.19082197546958923 0.011764705882352941
1.0687322616577148 117.0660629272461 -0.358612060546875 0.01568627450980392
5.7039408683776855 117.39478302001953 0.5249036550521851 0.011764705882352941
1.2640388011932373 117.07855987548828 -0.3498643636703491 0.01568627450980392
5.695837020874023 117.40380096435547 0.7251883745193481 0.011764705882352941
1.5101616382598877 117.09332275390625 -0.3597009778022766 0.01568627450980392
5.669098854064941 117.41168212890625 0.9259233474731445 1.0
1.7425963878631592 117.10810089111328 -0.3512910008430481 0.0196078431372549
5.689452648162842 117.42224884033203 1.1219091415405273 0.011764705882352941
1.9989221096038818 117.12437438964844 -0.3424728214740753 0.01568627450980392
5.701150894165039 117.4322509765625 1.3171542882919312 0.011764705882352941
2.2805697917938232 117.14219665527344 -0.3340272605419159 0.027450980392156862
20.097715377807617 118.30599975585938 0.9622088670730591 0.07450980392156863
2.599358320236206 117.1622085571289 -0.3279491662979126 0.023529411764705882
20.08634376525879 118.33067321777344 1.4963946342468262 0.047058823529411764
2.941274404525757 117.18397521972656 -0.31500867009162903 0.0196078431372549
5.707023620605469 117.46054077148438 1.9050376415252686 0.011764705882352941
3.3282296657562256 117.20845794677734 -0.30358049273490906 0.01568627450980392
5.714515686035156 117.47030639648438 2.1007893085479736 0.08627450980392157
3.7687149047851562 117.23625183105469 -0.29210424423217773 0.023529411764705882
4.315265655517578 117.27010345458984 -0.2913062274456024 0.01568627450980392
4.985879421234131 117.31112670898438 -0.3010006248950958 0.011764705882352941
5.62737512588501 117.35218048095703 -0.27226802706718445 0.00784313725490196
5.716596603393555 117.36651611328125 -0.08661845326423645 0.03137254901960784
5.691765785217285 117.37493896484375 0.12294167280197144 0.01568627450980392
8.549423217773438 117.53691101074219 -0.18879373371601105 0.011764705882352941
1.0694414377212524 117.0542984008789 -0.35805338621139526 0.01568627450980392
5.685791492462158 117.367431640625 0.529224693775177 0.011764705882352941
1.2647849321365356 117.0661849975586 -0.3492765724658966 0.01568627450980392
11.962571144104004 117.7060546875 -0.09973522275686264 0.011764705882352941
1.512727975845337 117.08023071289062 -0.35999923944473267 0.011764705882352941
14.405031204223633 117.85327911376953 -0.018946129828691483 0.00784313725490196
1.7434329986572266 117.09422302246094 -0.3506318926811218 0.011764705882352941
17.88505744934082 118.06275939941406 0.09016017615795135 0.0196078431372549
1.9998068809509277 117.10968780517578 -0.341775506734848 0.01568627450980392
5.694767475128174 117.40544128417969 1.3188955783843994 0.011764705882352941
2.285174608230591 117.12677001953125 -0.33488181233406067 0.027450980392156862
20.08407211303711 118.23344421386719 0.9662899971008301 0.054901960784313725
2.5966548919677734 117.14549255371094 -0.3256537914276123 0.0196078431372549
20.082672119140625 118.25869750976562 1.499908208847046 0.06274509803921569
2.932997941970825 117.16595458984375 -0.310617059469223 0.011764705882352941
20.128738403320312 118.28654479980469 2.029590368270874 0.054901960784313725
3.329366683959961 117.1895980834961 -0.3026849627494812 0.01568627450980392
5.718104362487793 117.4439926147461 2.1021080017089844 0.09803921568627451
3.7509491443634033 117.21519470214844 -0.2849099934101105 0.0196078431372549
4.3127641677856445 117.24797821044922 -0.289106160402298 0.01568627450980392
4.987329959869385 117.28706359863281 -0.2998580038547516 0.011764705882352941
5.638632297515869 117.32655334472656 -0.2734767198562622 0.00784313725490196
5.692863464355469 117.33894348144531 -0.07959496229887009 0.011764705882352941
5.656158447265625 117.3468246459961 0.13176444172859192 1.0
8.559412956237793 117.5020523071289 -0.1885320246219635 0.011764705882352941
1.06496262550354 117.04174041748047 -0.354451984167099 0.01568627450980392
9.98881721496582 117.54618072509766 -0.13777564465999603 0.0196078431372549
1.2812973260879517 117.05358123779297 -0.35732707381248474 0.01568627450980392
5.685144901275635 117.34900665283203 0.7295828461647034 0.011764705882352941
1.515294075012207 117.06639862060547 -0.36026275157928467 0.01568627450980392
5.725881576538086 117.36042022705078 0.9226860404014587 0.0
1.7370905876159668 117.07933807373047 -0.34641218185424805 0.011764705882352941
5.720487117767334 117.36958312988281 1.1221216917037964 0.0
2.0025055408477783 117.09425354003906 -0.3418786823749542 0.0196078431372549
20.033658981323242 118.12995910644531 0.4427323043346405 0.08235294117647059
2.2879462242126465 117.11038970947266 -0.33489805459976196 0.023529411764705882
5.709499835968018 117.38761901855469 1.5152366161346436 0.011764705882352941
2.6013545989990234 117.1281509399414 -0.3263323903083801 0.027450980392156862
5.71014928817749 117.39700317382812 1.7122021913528442 0.011764705882352941
2.947136163711548 117.1478500366211 -0.31470784544944763 0.011764705882352941
20.119075775146484 118.21012878417969 2.033057928085327 0.0392156862745098
3.3342702388763428 117.16983795166016 -0.3030743896961212 0.01568627450980392
5.723687171936035 117.41631317138672 2.103559970855713 0.13333333333333333
3.7616591453552246 117.19426727294922 -0.28701427578926086 0.0196078431372549
4.317911148071289 117.22496795654297 -0.2891637682914734 0.023529411764705882
4.996481418609619 117.26199340820312 -0.3007885217666626 0.011764705882352941
5.638266563415527 117.29891204833984 -0.2716801166534424 0.00784313725490196
6.4678850173950195 117.34567260742188 -0.2544128894805908 0.011764705882352941
5.6694817543029785 117.31973266601562 0.13068553805351257 0.011764705882352941
5.682645797729492 117.32990264892578 0.32971641421318054 0.011764705882352941
1.0655608177185059 117.0306396484375 -0.35392576456069946 0.01568627450980392
5.714379787445068 117.3160171508789 0.5277348160743713 0.011764705882352941
1.2661603689193726 117.04142761230469 -0.3481021821498871 0.01568627450980392
5.6924262046813965 117.32445526123047 0.7299783229827881 0.011764705882352941
1.5177379846572876 117.05401611328125 -0.3605954647064209 0.01568627450980392
5.6795573234558105 117.33321380615234 0.9290169477462769 0.0
1.739591121673584 117.06629943847656 -0.34667232632637024 0.011764705882352941
5.691973686218262 117.34319305419922 1.125824213027954 0.011764705882352941
2.003253698348999 117.08037567138672 -0.3412207067012787 0.0196078431372549
5.703674793243408 117.35305786132812 1.3210294246673584 0.011764705882352941
2.294240713119507 117.09584045410156 -0.33658915758132935 0.0196078431372549
20.107982635498047 118.0912857055664 0.9724687933921814 0.07450980392156863
2.6096038818359375 117.11274719238281 -0.32860463857650757 0.023529411764705882
20.0886173248291 118.11559295654297 1.5067203044891357 0.06274509803921569
2.942429304122925 117.1309814453125 -0.3117865025997162 0.011764705882352941
5.701562881469727 117.38080596923828 1.9087082147598267 0.011764705882352941
3.3465378284454346 117.15242004394531 -0.3062289357185364 0.01568627450980392
5.7190470695495605 117.39100646972656 2.104552745819092 0.13333333333333333
3.7778823375701904 117.17573547363281 -0.29109081625938416 0.023529411764705882
4.322854995727539 117.20437622070312 -0.28933683037757874 0.011764705882352941
4.999633312225342 117.23931884765625 -0.3002433180809021 0.011764705882352941
5.624094009399414 117.27363586425781 -0.2666006088256836 0.00784313725490196
5.698230266571045 117.296142578125 0.12628671526908875 0.01568627450980392
5.682016372680664 117.30500793457031 0.3312451243400574 0.011764705882352941
1.0627315044403076 117.01815795898438 -0.35133108496665955 0.011764705882352941
5.690120697021484 117.28710174560547 0.5330334901809692 0.011764705882352941
1.2685763835906982 117.02839660644531 -0.3484458923339844 0.01568627450980392
11.95627212524414 117.56501007080078 -0.09125353395938873 1.0
1.5113462209701538 117.0399398803711 -0.3562489449977875 0.0196078431372549
14.435713768005371 117.69035339355469 -0.013530716300010681 0.00784313725490196
1.7349480390548706 117.05152130126953 -0.343336820602417 0.011764705882352941
17.961387634277344 117.86844635009766 0.09398153424263 0.0196078431372549
1.996780276298523 117.06466674804688 -0.33713212609291077 0.023529411764705882
5.705087184906006 117.32522583007812 1.3223482370376587 0.027450980392156862
2.302412271499634 117.07957458496094 -0.3389925956726074 0.0196078431372549
20.11181640625 118.01573944091797 0.9760480523109436 0.07450980392156863
2.612344980239868 117.09527587890625 -0.32852768898010254 0.027450980392156862
20.112422943115234 118.04106140136719 1.5100135803222656 0.06274509803921569
2.947112560272217 117.11247253417969 -0.31232383847236633 0.011764705882352941
20.15052604675293 118.06803894042969 2.040064811706543 0.054901960784313725
3.3513197898864746 117.13257598876953 -0.30661559104919434 0.01568627450980392
5.718466758728027 117.36298370361328 2.10581111907959 0.17254901960784313
3.7675702571868896 117.15396118164062 -0.2863423824310303 0.011764705882352941
4.327859401702881 117.18130493164062 -0.28939321637153625 0.011764705882352941
5.000924110412598 117.21387481689453 -0.2990378439426422 0.011764705882352941
5.642931938171387 117.24677276611328 -0.2696934938430786 0.00784313725490196
5.695243835449219 117.258544921875 -0.07534302771091461 0.027450980392156862
5.64871883392334 117.266357421875 0.13794420659542084 0.011764705882352941
8.582926750183105 117.39496612548828 -0.1865900605916977 0.011764705882352941
1.0684781074523926 117.00650787353516 -0.3537847101688385 0.01568627450980392
10.032383918762207 117.4283218383789 -0.13793335855007172 0.00784313725490196
1.2691645622253418 117.01600646972656 -0.34785932302474976 0.01568627450980392
5.703010559082031 117.27067565917969 0.7315006256103516 0.0196078431372549
1.5101956129074097 117.02674865722656 -0.35470443964004517 0.0196078431372549
5.710027694702148 117.28032684326172 0.9285812973976135 1.0
1.748173475265503 117.03795623779297 -0.3488432765007019 0.01568627450980392
5.720519065856934 117.2901611328125 1.126211404800415 1.0
1.997477412223816 117.04998779296875 -0.3364373445510864 0.023529411764705882
20.026546478271484 117.91523742675781 0.45395970344543457 0.08235294117647059
2.2958178520202637 117.06375122070312 -0.33506929874420166 0.023529411764705882
5.731479644775391 117.3092269897461 1.5183154344558716 0.01568627450980392
2.613133192062378 117.07866668701172 -0.32774144411087036 0.027450980392156862
5.716158866882324 117.31787109375 1.7159274816513062 0.011764705882352941
2.9516890048980713 117.09491729736328 -0.3129071593284607 0.011764705882352941
5.724206447601318 117.32749938964844 1.9114596843719482 0.011764705882352941
3.3503339290618896 117.11359405517578 -0.3050534725189209 0.01568627450980392
5.7297043800354 117.33702087402344 2.1073858737945557 0.2549019607843137
3.781830310821533 117.1341323852539 -0.28973981738090515 0.011764705882352941
4.340386390686035 117.15968322753906 -0.2918177843093872 0.011764705882352941
5.003995895385742 117.18983459472656 -0.298429936170578 0.011764705882352941
5.646110534667969 117.22071838378906 -0.26894527673721313 0.00784313725490196
5.690644264221191 117.23204803466797 -0.07276976108551025 0.08235294117647059
1.062079668045044 116.99464416503906 -0.34921619296073914 0.011764705882352941
1.2749731540679932 117.00370788574219 -0.3501600921154022 0.01568627450980392
5.712105751037598 117.24462890625 0.7317083477973938 0.023529411764705882
1.5161035060882568 117.01370239257812 -0.3568468689918518 0.01568627450980392
5.699274063110352 117.25350952148438 0.9311104416847229 0.00784313725490196
1.7469940185546875 117.0240249633789 -0.34730595350265503 0.01568627450980392
5.691817283630371 117.2625961303711 1.129967212677002 0.011764705882352941
2.009021520614624 117.03553771972656 -0.3407703936100006 0.01568627450980392
2.294675588607788 117.048095703125 -0.3335350751876831 0.027450980392156862
20.098419189453125 117.87178039550781 0.9835676550865173 0.054901960784313725
2.61757493019104 117.06214904785156 -0.3284614384174347 0.023529411764705882
20.12499237060547 117.89813232421875 1.5167067050933838 0.06274509803921569
2.9543421268463135 117.0772933959961 -0.31278038024902344 0.011764705882352941
5.711394309997559 117.3004379272461 1.9125810861587524 0.011764705882352941
3.347402334213257 117.09457397460938 -0.3028266727924347 0.01568627450980392
5.7308783531188965 117.310546875 2.1086385250091553 0.27058823529411763
3.7789292335510254 117.1137466430664 -0.28753662109375 0.011764705882352941
4.335620880126953 117.13748931884766 -0.2890436351299286 0.011764705882352941
5.0262603759765625 117.16635131835938 -0.30314967036247253 0.011764705882352941
5.65114688873291 117.19470977783203 -0.26868507266044617 0.00784313725490196
5.6996073722839355 117.20602416992188 -0.07329688966274261 0.0196078431372549
5.694218635559082 117.21548461914062 0.13168205320835114 0.01568627450980392
5.689770698547363 117.2248764038086 0.3343421518802643 0.03529411764705882
1.0747008323669434 116.9823989868164 -0.35564953088760376 0.01568627450980392
5.709479808807373 117.2072525024414 0.5343935489654541 0.03137254901960784
1.2649919986724854 116.99046325683594 -0.34376847743988037 0.01568627450980392
1.509574294090271 116.99969482421875 -0.3525051176548004 0.011764705882352941
1.7493923902511597 117.00939178466797 -0.3474924564361572 0.0196078431372549
2.006028175354004 117.01994323730469 -0.33836066722869873 0.01568627450980392
2.2953526973724365 117.03162384033203 -0.33275607228279114 0.0196078431372549
2.6127376556396484 117.04448699951172 -0.32537418603897095 0.023529411764705882
20.190046310424805 117.82492065429688 1.5194292068481445 0.01568627450980392
2.9513697624206543 117.05854797363281 -0.3104798197746277 0.011764705882352941
3.355764865875244 117.07477569580078 -0.3045446574687958 0.01568627450980392
5.728033542633057 117.28242492675781 2.1098294258117676 0.2549019607843137
3.779808521270752 117.09235382080078 -0.28652507066726685 0.01568627450980392
4.342319488525391 117.11438751220703 -0.28967592120170593 0.011764705882352941
5.019601345062256 117.140625 -0.2998131215572357 0.011764705882352941
5.654219627380371 117.16716003417969 -0.2678681015968323 0.00784313725490196
5.6968488693237305 117.17813873291016 -0.07109957933425903 0.01568627450980392
5.699278354644775 117.1878433227539 0.13220059871673584 1.0
8.603450775146484 117.28742980957031 -0.18428990244865417 0.011764705882352941
1.0682252645492554 116.97055053710938 -0.351082980632782 0.011764705882352941
10.061105728149414 117.30707550048828 -0.13582837581634521 0.011764705882352941
1.263707160949707 116.97806549072266 -0.3422216773033142 0.01568627450980392
5.698391437530518 117.18992614746094 0.7363426089286804 0.01568627450980392
1.517173409461975 116.98663330078125 -0.3555677533149719 0.01568627450980392
5.719304084777832 117.19991302490234 0.9317524433135986 0.011764705882352941
1.7499191761016846 116.99549102783203 -0.3468358814716339 0.01568627450980392
5.719852924346924 117.20931243896484 1.1303603649139404 0.01568627450980392
2.002953052520752 117.00518798828125 -0.3359913229942322 0.011764705882352941
5.725615978240967 117.21878051757812 1.326445460319519 0.12156862745098039
2.299614429473877 117.01606750488281 -0.3336085379123688 0.027450980392156862
2.6170732975006104 117.02793884277344 -0.32609421014785767 0.023529411764705882
2.950169801712036 117.04084014892578 -0.30893629789352417 0.011764705882352941
3.3338537216186523 117.05538940429688 -0.29566723108291626 0.01568627450980392
5.729037284851074 117.25595092773438 2.1110799312591553 0.27450980392156865
3.786278247833252 117.07219696044922 -0.2874313294887543 0.0196078431372549
4.352726459503174 117.09255981445312 -0.2915183901786804 0.011764705882352941
5.018589019775391 117.11640930175781 -0.2981390357017517 0.011764705882352941
5.659088611602783 117.14109802246094 -0.2676070034503937 0.00784313725490196
6.491455078125 117.17214965820312 -0.249717116355896 0.011764705882352941
5.686557769775391 117.16116333007812 0.13621953129768372 0.01568627450980392
5.707652568817139 117.17127227783203 0.33408787846565247 0.011764705882352941
1.0686333179473877 116.95879364013672 -0.35052788257598877 0.011764705882352941
10.08620548248291 117.2677001953125 -0.13759654760360718 0.011764705882352941
1.2676440477371216 116.96571350097656 -0.34356069564819336 0.011764705882352941
5.699305057525635 117.16360473632812 0.7375853061676025 1.0
1.5140799283981323 116.97343444824219 -0.35310497879981995 0.01568627450980392
5.692389965057373 117.1727294921875 0.9359762668609619 0.00784313725490196
1.7521977424621582 116.98161315917969 -0.3470590114593506 0.0196078431372549
5.684909343719482 117.18185424804688 1.1345981359481812 0.011764705882352941
2.0016469955444336 116.99047088623047 -0.33446091413497925 0.011764705882352941
2.294651508331299 117.0003662109375 -0.33048680424690247 0.027450980392156862
2.6213557720184326 117.01136779785156 -0.32681354880332947 0.023529411764705882
5.698408603668213 117.2099838256836 1.721287727355957 0.00784313725490196
2.9638729095458984 117.02336883544922 -0.31306183338165283 0.011764705882352941
5.732445240020752 117.22032928466797 1.9165692329406738 0.047058823529411764
3.3401663303375244 117.03661346435547 -0.29677149653434753 0.01568627450980392
