44.78031921386719 103.78499603271484 0.6828262209892273 0.08627450980392157
2.585134267807007 115.48747253417969 -0.32066747546195984 0.01568627450980392
2.958195209503174 115.38390350341797 -0.31419479846954346 0.011764705882352941
5.555454730987549 114.76400756835938 2.031419515609741 0.0196078431372549
3.3607871532440186 115.27238464355469 -0.30143067240715027 0.0196078431372549
3.7988717555999756 115.15132141113281 -0.2810981273651123 0.03137254901960784
4.359685897827148 114.99545288085938 -0.2752985954284668 0.01568627450980392
4.95876407623291 114.82959747314453 -0.25436896085739136 0.011764705882352941
5.442963123321533 114.69822692871094 -0.17662519216537476 0.0392156862745098
5.437522888183594 114.70896911621094 0.03328695148229599 0.011764705882352941
5.436255931854248 114.71834564208984 0.2383909523487091 0.011764705882352941
5.449192523956299 114.72357177734375 0.43910637497901917 0.011764705882352941
47.7607536315918 103.49396514892578 12.932258605957031 0.12941176470588237
1.009803295135498 115.91228485107422 -0.34860852360725403 0.01568627450980392
5.444896221160889 114.70614624023438 0.6429104804992676 0.00784313725490196
1.1957738399505615 115.86056518554688 -0.33320385217666626 0.01568627450980392
5.462000846862793 114.71002960205078 0.8410594463348389 0.011764705882352941
1.4562755823135376 115.78645324707031 -0.3492268919944763 0.01568627450980392
5.486134052276611 114.7118911743164 1.0381684303283691 0.011764705882352941
1.6954036951065063 115.71939849853516 -0.34182706475257874 0.01568627450980392
5.486794471740723 114.72051239013672 1.2386761903762817 0.011764705882352941
1.9490896463394165 115.64848327636719 -0.3288748264312744 0.0196078431372549
5.498199939727783 114.72599029541016 1.43644380569458 0.011764705882352941
2.2502152919769287 115.56377410888672 -0.325658917427063 0.023529411764705882
5.50710391998291 114.732177734375 1.6342854499816895 0.011764705882352941
2.5930018424987793 115.46721649169922 -0.3250289559364319 0.0196078431372549
2.956843614578247 115.36514282226562 -0.31478357315063477 0.011764705882352941
5.563597202301025 114.73377227783203 2.032932758331299 0.0
3.350029945373535 115.25505828857422 -0.2986798882484436 0.0196078431372549
49.5761604309082 102.43437957763672 4.362480640411377 0.2
3.7913482189178467 115.13154602050781 -0.2796096205711365 0.03137254901960784
49.55784225463867 102.495361328125 5.632951736450195 0.10588235294117647
4.351656913757324 114.97391510009766 -0.27377739548683167 0.01568627450980392
4.955765724182129 114.80455017089844 -0.25432705879211426 0.011764705882352941
5.445165157318115 114.67000579833984 -0.17780844867229462 0.027450980392156862
5.409726142883301 114.68952178955078 0.038972657173871994 0.011764705882352941
7.605474948883057 114.0608901977539 -0.18662357330322266 0.0196078431372549
9.063089370727539 113.65052795410156 -0.1784370094537735 0.01568627450980392
0.9963459968566895 115.90318298339844 -0.3422008454799652 0.011764705882352941
5.435357093811035 114.67976379394531 0.6443709135055542 0.011764705882352941
1.202260136604309 115.84459686279297 -0.33826518058776855 0.011764705882352941
13.273506164550781 112.41009521484375 -0.10637861490249634 0.03529411764705882
1.4523922204971313 115.77275848388672 -0.34862545132637024 0.01568627450980392
16.893848419189453 111.37873077392578 -0.0665009543299675 0.054901960784313725
1.6757384538650513 115.70968627929688 -0.3334994614124298 0.011764705882352941
5.43502140045166 114.70613861083984 1.2430567741394043 0.00784313725490196
1.937752366065979 115.63529968261719 -0.3249533176422119 0.011764705882352941
2.2473526000976562 115.54691314697266 -0.32571154832839966 0.023529411764705882
5.472487449645996 114.71270751953125 1.6361238956451416 0.0
2.593400716781616 115.44813537597656 -0.3264418840408325 0.023529411764705882
5.5038886070251465 114.71247100830078 1.8349168300628662 0.011764705882352941
2.9569497108459473 115.3448486328125 -0.31601232290267944 0.011764705882352941
5.494289875030518 114.72389221191406 2.0326297283172607 0.00784313725490196
3.3479981422424316 115.23400115966797 -0.299081027507782 0.0196078431372549
44.81963348388672 103.594482421875 4.141343593597412 0.1607843137254902
3.78161358833313 115.11121368408203 -0.2774786353111267 0.03137254901960784
49.52410125732422 102.31786346435547 5.641677379608154 0.10588235294117647
4.352424144744873 114.94843292236328 -0.2749553620815277 0.01568627450980392
4.952305316925049 114.77816009521484 -0.25422734022140503 0.011764705882352941
5.441267490386963 114.64199829101562 -0.17754732072353363 0.023529411764705882
5.355214595794678 114.67655944824219 0.05051949992775917 0.0
7.599587440490723 114.02572631835938 -0.1858663707971573 0.011764705882352941
9.082368850708008 113.60276794433594 -0.18190743029117584 0.01568627450980392
46.914512634277344 103.37591552734375 12.780142784118652 0.12156862745098039
1.0032052993774414 115.88915252685547 -0.3475927710533142 0.011764705882352941
5.43414831161499 114.65400695800781 0.644595742225647 0.00784313725490196
1.1972737312316895 115.8336181640625 -0.336823433637619 0.01568627450980392
5.4226393699646 114.66617584228516 0.8463098406791687 0.011764705882352941
1.450585961341858 115.7599868774414 -0.3489842712879181 0.01568627450980392
16.955562591552734 111.29779052734375 -0.07154335081577301 0.058823529411764705
1.6806706190109253 115.69410705566406 -0.33720505237579346 0.01568627450980392
22.56644058227539 109.68199157714844 0.005072183441370726 0.050980392156862744
1.9390649795532227 115.6199951171875 -0.3267887532711029 0.011764705882352941
5.462437629699707 114.68072509765625 1.4397143125534058 0.011764705882352941
2.241398572921753 115.5328598022461 -0.32430166006088257 0.023529411764705882
44.064205169677734 103.50946044921875 0.7164913415908813 0.08627450980392157
2.592480182647705 115.4314193725586 -0.32720884680747986 0.023529411764705882
45.11975860595703 103.25479125976562 1.854923963546753 0.09019607843137255
2.9593489170074463 115.3259506225586 -0.31800973415374756 0.0196078431372549
5.510376930236816 114.69296264648438 2.0342633724212646 0.011764705882352941
3.346498966217041 115.21504211425781 -0.2995748817920685 0.0196078431372549
49.565208435058594 102.08273315429688 4.380906581878662 0.2
3.7797744274139404 115.09095764160156 -0.2778279781341553 0.027450980392156862
49.556400299072266 102.14112854003906 5.654084205627441 0.10588235294117647
4.348285675048828 114.92704010009766 -0.27459102869033813 0.01568627450980392
4.953228950500488 114.7533187866211 -0.25525546073913574 0.01568627450980392
5.4250383377075195 114.62071990966797 -0.17419065535068512 0.027450980392156862
5.417751312255859 114.6320571899414 0.03622610121965408 0.011764705882352941
5.416492462158203 114.64141845703125 0.24137580394744873 0.01568627450980392
5.429396152496338 114.64649963378906 0.4421432912349701 0.011764705882352941
0.9882135987281799 115.88129425048828 -0.34023988246917725 0.011764705882352941
10.957578659057617 112.97824096679688 -0.16124878823757172 0.011764705882352941
1.192058801651001 115.82199096679688 -0.33535316586494446 0.01568627450980392
5.403825283050537 114.64411926269531 0.8488113880157471 0.00784313725490196
1.4434140920639038 115.74810791015625 -0.3466246426105499 0.0196078431372549
5.450702667236328 114.63893127441406 1.0428372621536255 0.00784313725490196
1.6853276491165161 115.67771911621094 -0.3408760130405426 0.01568627450980392
5.445584774017334 114.64921569824219 1.2434347867965698 0.00784313725490196
1.929625153541565 115.60713958740234 -0.32371842861175537 0.011764705882352941
5.489505767822266 114.64497375488281 1.4391825199127197 0.023529411764705882
2.2404427528381348 115.51632690429688 -0.32516297698020935 0.023529411764705882
5.471532344818115 114.658935546875 1.637990951538086 0.011764705882352941
2.58233904838562 115.41653442382812 -0.3243054449558258 0.023529411764705882
5.5201616287231445 114.6534652709961 1.8371305465698242 0.0
2.9560108184814453 115.30770874023438 -0.3179166316986084 0.01568627450980392
5.518253803253174 114.66272735595703 2.035773754119873 0.011764705882352941
3.337388515472412 115.19725036621094 -0.29746896028518677 0.0196078431372549
49.55788803100586 101.90702819824219 4.39007043838501 0.2
3.779370069503784 115.06901550292969 -0.27872276306152344 0.027450980392156862
49.56245040893555 101.96157836914062 5.665212631225586 0.10588235294117647
4.338207244873047 114.90612030029297 -0.27252519130706787 0.01568627450980392
4.949981212615967 114.7282485961914 -0.25521552562713623 0.01568627450980392
5.436285495758057 114.58965301513672 -0.17767487466335297 0.023529411764705882
5.37103796005249 114.6185073852539 0.04604039341211319 0.0
7.624791622161865 113.95003509521484 -0.1915997564792633 0.0196078431372549
9.082462310791016 113.52482604980469 -0.18231593072414398 0.01568627450980392
0.9864951968193054 115.86925506591797 -0.3407134711742401 0.011764705882352941
5.383243560791016 114.61393737792969 0.6520851254463196 0.00784313725490196
1.1969069242477417 115.8071517944336 -0.3395051658153534 0.01568627450980392
13.312560081481934 112.2382583618164 -0.10984168201684952 0.027450980392156862
1.4430235624313354 115.73408508300781 -0.34784916043281555 0.01568627450980392
17.12563705444336 111.11292266845703 -0.08607539534568787 0.0392156862745098
1.6726866960525513 115.66676330566406 -0.33600670099258423 0.0196078431372549
5.418965816497803 114.62938690185547 1.245933175086975 0.00784313725490196
1.9358370304107666 115.5893783569336 -0.3279534578323364 0.011764705882352941
2.227104425430298 115.503662109375 -0.32064288854599 0.01568627450980392
43.750484466552734 103.2839126586914 0.7347284555435181 0.08627450980392157
2.577491044998169 115.4000244140625 -0.32358232140541077 0.027450980392156862
5.481895446777344 114.63673400878906 1.8382375240325928 0.011764705882352941
2.9382553100585938 115.29395294189453 -0.31236740946769714 0.011764705882352941
5.510677814483643 114.63693237304688 2.0369038581848145 0.0
3.3445146083831787 115.17443084716797 -0.30111023783683777 0.0196078431372549
3.767946481704712 115.05045318603516 -0.2760526239871979 0.027450980392156862
49.575538635253906 101.77960968017578 5.676906585693359 0.10588235294117647
4.337254047393799 114.88240051269531 -0.273208886384964 0.01568627450980392
4.946651458740234 114.70317840576172 -0.25517621636390686 0.01568627450980392
5.536753177642822 114.53113555908203 -0.20321831107139587 0.0196078431372549
5.367360591888428 114.59210205078125 0.04631930962204933 0.011764705882352941
7.607773780822754 113.91999816894531 -0.18870949745178223 0.011764705882352941
9.092405319213867 113.48162841796875 -0.184251070022583 0.01568627450980392
0.998013973236084 115.8529052734375 -0.3490087389945984 0.01568627450980392
5.406030178070068 114.57936096191406 0.6487711668014526 0.011764705882352941
1.1899309158325195 115.79608154296875 -0.33709973096847534 0.011764705882352941
2.6004958152770996 115.44134521484375 1.1890264749526978 0.00784313725490196
1.4391809701919556 115.72115325927734 -0.34728312492370605 0.0196078431372549
17.177692413330078 111.02942657470703 -0.09017372876405716 0.0392156862745098
1.6737968921661377 115.65145111083984 -0.33796995878219604 0.01568627450980392
5.453422546386719 114.59123992919922 1.244018316268921 0.0
1.9419845342636108 115.57156372070312 -0.3321869969367981 0.01568627450980392
5.422682285308838 114.60916900634766 1.4438982009887695 0.00784313725490196
2.236607313156128 115.48379516601562 -0.32611769437789917 0.0196078431372549
2.581475019454956 115.38072204589844 -0.3264883756637573 0.023529411764705882
5.434024810791016 114.62307739257812 1.8393253087997437 0.0
2.927639961242676 115.27802276611328 -0.30955055356025696 0.011764705882352941
5.476192474365234 114.619140625 2.0373587608337402 0.011764705882352941
3.3388991355895996 115.1555404663086 -0.30028313398361206 0.0196078431372549
3.7710487842559814 115.02737426757812 -0.2781367599964142 0.027450980392156862
4.334384918212891 114.85924530029297 -0.27334359288215637 0.01568627450980392
4.945087909698486 114.67752838134766 -0.2556425631046295 0.01568627450980392
5.586735248565674 114.48751068115234 -0.21633094549179077 0.011764705882352941
5.389772415161133 114.5576171875 0.0408041812479496 0.011764705882352941
7.613216400146484 113.88310241699219 -0.19024312496185303 0.011764705882352941
5.376784801483154 114.57942962646484 0.4506484270095825 0.011764705882352941
0.9844058752059937 115.843994140625 -0.3426119089126587 0.011764705882352941
10.962295532226562 112.8342056274414 -0.1618839055299759 0.011764705882352941
1.1827189922332764 115.78436279296875 -0.33466675877571106 0.01568627450980392
1.4333807229995728 115.70806884765625 -0.34579166769981384 0.01568627450980392
5.391345977783203 114.57202911376953 1.0497468709945679 1.0
1.6780668497085571 115.63424682617188 -0.34160691499710083 0.01568627450980392
5.418595314025879 114.57241821289062 1.2471221685409546 0.00784313725490196
1.9252047538757324 115.56019592285156 -0.32584109902381897 0.011764705882352941
5.44326639175415 114.57354736328125 1.4437075853347778 0.027450980392156862
2.2299561500549316 115.46807861328125 -0.3246375024318695 0.027450980392156862
5.45592737197876 114.57835388183594 1.6412372589111328 0.011764705882352941
2.585113763809204 115.36045837402344 -0.3293534219264984 0.023529411764705882
5.466126918792725 114.58397674560547 1.8405452966690063 0.00784313725490196
2.9292237758636475 115.25717163085938 -0.3114650845527649 0.0196078431372549
5.496764659881592 114.5833969116211 2.039268732070923 0.01568627450980392
3.3329083919525146 115.13560485839844 -0.2994116246700287 0.0196078431372549
3.760986566543579 115.00716400146484 -0.2760155200958252 0.03137254901960784
4.331071853637695 114.8348617553711 -0.27342578768730164 0.01568627450980392
4.93565034866333 114.65286254882812 -0.2540341913700104 0.01568627450980392
5.6082282066345215 114.4508285522461 -0.22247999906539917 0.011764705882352941
5.349981784820557 114.54080200195312 0.04900263249874115 0.0
7.616109848022461 113.84493255615234 -0.19132891297340393 0.0196078431372549
5.3612165451049805 114.55506134033203 0.4531053304672241 0.011764705882352941
0.9825659990310669 115.83195495605469 -0.3430868983268738 0.011764705882352941
10.994658470153809 112.7772445678711 -0.16663530468940735 0.011764705882352941
1.1974941492080688 115.76615142822266 -0.34443461894989014 0.01568627450980392
1.4345532655715942 115.69348907470703 -0.3479125201702118 0.01568627450980392
5.400750160217285 114.5413589477539 1.049201488494873 0.00784313725490196
1.6687523126602173 115.62226867675781 -0.33845004439353943 0.01568627450980392
5.39178991317749 114.55284881591797 1.2496057748794556 0.0
1.9242879152297974 115.54461669921875 -0.3268314301967621 0.011764705882352941
2.2305400371551514 115.45096588134766 -0.32626891136169434 0.0196078431372549
2.5783169269561768 115.34452056884766 -0.32790660858154297 0.027450980392156862
5.454507827758789 114.55952453613281 1.841660499572754 0.011764705882352941
2.925661563873291 115.23899841308594 -0.3113776445388794 0.0196078431372549
3.3289761543273926 115.11616516113281 -0.2992250919342041 0.027450980392156862
3.758478879928589 114.98579406738281 -0.2763194143772125 0.027450980392156862
4.324382305145264 114.8128662109375 -0.27246493101119995 0.01568627450980392
4.941295623779297 114.62487030029297 -0.2565174698829651 0.01568627450980392
5.6281561851501465 114.416015625 -0.22822688519954681 0.011764705882352941
5.368443012237549 114.50735473632812 0.044318169355392456 0.011764705882352941
7.628790378570557 113.80555725097656 -0.19433093070983887 0.0196078431372549
9.101835250854492 113.3553237915039 -0.18672916293144226 0.011764705882352941
0.9790322780609131 115.82046508789062 -0.34258541464805603 0.011764705882352941
5.388125419616699 114.50004577636719 0.6513315439224243 0.011764705882352941
1.1786640882492065 115.75902557373047 -0.3354807496070862 0.01568627450980392
1.4288864135742188 115.68115234375 -0.34645453095436096 0.0196078431372549
5.404342174530029 114.51239013671875 1.0492092370986938 0.00784313725490196
1.6611216068267822 115.6097640991211 -0.33614856004714966 0.0196078431372549
5.3973164558410645 114.5233154296875 1.2497552633285522 0.00784313725490196
1.9181089401245117 115.53074645996094 -0.325390487909317 0.011764705882352941
5.406667232513428 114.52902221679688 1.4469337463378906 1.0
2.225802421569824 115.43556213378906 -0.32559654116630554 0.0196078431372549
42.96104049682617 102.88365173339844 0.7746634483337402 0.09019607843137255
2.5750155448913574 115.32744598388672 -0.3279116451740265 0.0392156862745098
5.433260917663574 114.53807067871094 1.8427599668502808 0.0
2.9184651374816895 115.22200012207031 -0.3099290430545807 0.0196078431372549
5.440907001495361 114.5443344116211 2.0404882431030273 0.011764705882352941
3.3231780529022217 115.09732055664062 -0.2984023094177246 0.027450980392156862
3.7540838718414307 114.96501159667969 -0.27603110671043396 0.03137254901960784
4.32311487197876 114.78912353515625 -0.27315086126327515 0.01568627450980392
4.937628269195557 114.59977722167969 -0.25648123025894165 0.01568627450980392
5.293558120727539 114.50350952148438 0.06028863415122032 0.00784313725490196
7.607602119445801 113.77679443359375 -0.19071410596370697 0.011764705882352941
9.111166000366211 113.31181335449219 -0.18865588307380676 0.01568627450980392
0.9771155118942261 115.80842590332031 -0.34306156635284424 0.011764705882352941
11.00021743774414 112.6812515258789 -0.16757458448410034 0.0196078431372549
1.183274269104004 115.74410247802734 -0.3396311402320862 0.01568627450980392
2.598853588104248 115.36803436279297 1.1896717548370361 0.8980392156862745
1.4299651384353638 115.66655731201172 -0.3485758602619171 0.01568627450980392
17.48215103149414 110.65621185302734 -0.11598145216703415 0.043137254901960784
1.656886100769043 115.59615325927734 -0.33555468916893005 0.0196078431372549
5.379906177520752 114.50093078613281 1.251545786857605 0.0
1.9188271760940552 115.51458740234375 -0.32719218730926514 0.011764705882352941
5.414004802703857 114.4988021850586 1.4473201036453247 0.01568627450980392
2.2192633152008057 115.42076110839844 -0.3241577744483948 0.0196078431372549
5.428521633148193 114.50286102294922 1.6446728706359863 0.011764705882352941
2.5734283924102783 115.3097915649414 -0.3286415934562683 0.03529411764705882
5.4558634757995605 114.50299835205078 1.8439174890518188 0.011764705882352941
2.9183616638183594 115.20267486572266 -0.3112056851387024 0.01568627450980392
5.471135139465332 114.50688171386719 2.042585849761963 0.01568627450980392
3.3173210620880127 115.0784912109375 -0.2975809872150421 0.027450980392156862
3.755067825317383 114.94245147705078 -0.27752238512039185 0.03137254901960784
4.318110942840576 114.76656341552734 -0.2727409303188324 0.01568627450980392
4.933877468109131 114.5746841430664 -0.25644567608833313 0.01568627450980392
5.463864326477051 114.41185760498047 -0.18928514420986176 0.011764705882352941
7.621896743774414 113.73670196533203 -0.19408082962036133 0.0196078431372549
5.362378120422363 114.47156524658203 0.4522284269332886 0.011764705882352941
0.9702052474021912 115.79808807373047 -0.34060871601104736 0.011764705882352941
11.007457733154297 112.63165283203125 -0.16873057186603546 0.011764705882352941
1.1844834089279175 115.73027038574219 -0.34190937876701355 0.01568627450980392
2.620110034942627 115.34291076660156 1.1871883869171143 0.4196078431372549
1.4259110689163208 115.6536636352539 -0.34801411628723145 0.01568627450980392
2.6137211322784424 115.35067749023438 1.3190765380859375 1.0
1.6646062135696411 115.5784912109375 -0.34092941880226135 0.0196078431372549
22.807558059692383 108.90771484375 0.0017759191105142236 0.050980392156862744
1.9038925170898438 115.503662109375 -0.3217037618160248 0.011764705882352941
2.207425594329834 115.4077377319336 -0.3204185962677002 0.01568627450980392
5.397631645202637 114.484619140625 1.646308422088623 0.0
2.5682461261749268 115.2933120727539 -0.3279235363006592 0.0196078431372549
5.403955459594727 114.49127197265625 1.8449630737304688 0.00784313725490196
2.9164071083068848 115.18392181396484 -0.3118015229701996 0.01568627450980392
3.3168039321899414 115.0578842163086 -0.29867157340049744 0.023529411764705882
3.755974769592285 114.91986846923828 -0.27901357412338257 0.03529411764705882
4.314861297607422 114.743408203125 -0.272879958152771 0.01568627450980392
4.930044174194336 114.54959869384766 -0.256411075592041 0.01568627450980392
5.622364044189453 114.33184814453125 -0.22940103709697723 0.00784313725490196
5.322568893432617 114.43893432617188 0.052569687366485596 0.011764705882352941
7.6210832595825195 113.70134735107422 -0.19450771808624268 0.011764705882352941
5.360071182250977 114.44448852539062 0.45236504077911377 0.011764705882352941
0.9812096953392029 115.78086853027344 -0.34886884689331055 0.011764705882352941
5.348724842071533 114.4276123046875 0.6569007635116577 0.011764705882352941
1.1770708560943604 115.7186279296875 -0.33948200941085815 0.011764705882352941
1.423280119895935 115.63948822021484 -0.3483162224292755 0.01568627450980392
1.6566073894500732 115.56527709960938 -0.3385988175868988 0.01568627450980392
5.369138240814209 114.44703674316406 1.2534044981002808 0.011764705882352941
1.911184310913086 115.48436737060547 -0.32671114802360535 0.011764705882352941
5.401269435882568 114.4452896118164 1.4494178295135498 0.0
2.216273546218872 115.3868179321289 -0.325851172208786 0.0196078431372549
2.5609536170959473 115.27653503417969 -0.32644325494766235 0.043137254901960784
5.395418167114258 114.46442413330078 1.846131682395935 0.00784313725490196
2.906949520111084 115.16659545898438 -0.3096342980861664 0.01568627450980392
5.408748626708984 114.46875762939453 2.0436885356903076 0.00784313725490196
3.312286376953125 115.03742980957031 -0.29844367504119873 0.023529411764705882
3.7437615394592285 114.90037536621094 -0.2763086259365082 0.03137254901960784
4.311145782470703 114.71903228759766 -0.27296704053878784 0.01568627450980392
4.922030448913574 114.52439880371094 -0.25531408190727234 0.01568627450980392
5.2938408851623535 114.41009521484375 -0.14899833500385284 0.043137254901960784
5.332726001739502 114.40630340576172 0.04960130900144577 0.01568627450980392
5.312705039978027 114.4217758178711 0.25805583596229553 0.011764705882352941
9.133807182312012 113.17987060546875 -0.19368818402290344 0.01568627450980392
0.970923900604248 115.77169036865234 -0.3444652557373047 0.011764705882352941
2.61630916595459 115.30054473876953 1.0555764436721802 0.00784313725490196
1.1698404550552368 115.70769500732422 -0.3370858430862427 0.011764705882352941
2.5978286266326904 115.31237030029297 1.190050721168518 0.984313725490196
1.4208317995071411 115.62603759765625 -0.34865009784698486 0.01568627450980392
1.6522330045700073 115.55167388916016 -0.3380071520805359 0.01568627450980392
22.86884117126465 108.70631408691406 0.0007739866268821061 0.050980392156862744
1.8996347188949585 115.47234344482422 -0.3228466212749481 0.011764705882352941
5.341800212860107 114.43657684326172 1.4529402256011963 0.00784313725490196
2.207839250564575 115.37265014648438 -0.3236493468284607 0.027450980392156862
5.401863098144531 114.4256362915039 1.6481049060821533 0.011764705882352941
2.55566668510437 115.26010131835938 -0.3257282078266144 0.047058823529411764
5.427210807800293 114.42610168457031 1.8473116159439087 0.011764705882352941
2.9084362983703613 115.14665222167969 -0.3115924000740051 0.0196078431372549
5.415787220001221 114.43840026855469 2.0451953411102295 0.011764705882352941
3.308037281036377 115.01802062988281 -0.2982623875141144 0.023529411764705882
3.7463314533233643 114.8771743774414 -0.2783927619457245 0.027450980392156862
4.30226993560791 114.69771575927734 -0.2714656889438629 0.01568627450980392
4.921704292297363 114.49809265136719 -0.25628751516342163 0.01568627450980392
5.330113887786865 114.37026977539062 -0.1588924378156662 0.03137254901960784
5.3341145515441895 114.39572143554688 0.45622602105140686 0.01568627450980392
0.962261974811554 115.76197814941406 -0.34104016423225403 0.011764705882352941
2.618411064147949 115.28137969970703 1.0552033185958862 0.0196078431372549
1.1775926351547241 115.69151306152344 -0.34310445189476013 0.01568627450980392
2.5905442237854004 115.29638671875 1.1910008192062378 0.984313725490196
1.425095558166504 115.61022186279297 -0.35255861282348633 0.01568627450980392
1.647815465927124 115.5380859375 -0.3374166190624237 0.0196078431372549
22.907217025756836 108.60491180419922 -0.00035260405275039375 0.054901960784313725
1.910515308380127 115.45257568359375 -0.329505980014801 0.01568627450980392
2.2063467502593994 115.35611724853516 -0.3245163857936859 0.023529411764705882
5.353700160980225 114.41329956054688 1.6501104831695557 1.0
2.546802282333374 115.24488830566406 -0.32356715202331543 0.047058823529411764
5.38850212097168 114.41053771972656 1.8483587503433228 0.0
2.9009592533111572 115.12973022460938 -0.31015080213546753 0.0196078431372549
3.3037257194519043 114.99862670898438 -0.2980821430683136 0.023529411764705882
3.7397782802581787 114.85700988769531 -0.2775167226791382 0.027450980392156862
4.298792839050293 114.67457580566406 -0.2716082036495209 0.01568627450980392
4.917619228363037 114.47300720214844 -0.2562558650970459 0.01568627450980392
5.594961166381836 114.25297546386719 -0.22548559308052063 0.011764705882352941
5.316473960876465 114.35603332519531 0.05178673565387726 0.01568627450980392
5.322587013244629 114.36286926269531 0.2551092803478241 0.027450980392156862
0.9700220227241516 115.74645233154297 -0.34737318754196167 0.011764705882352941
1.1736172437667847 115.67941284179688 -0.34257906675338745 0.01568627450980392
2.59263014793396 115.27727508544922 1.1908087730407715 0.984313725490196
1.4141160249710083 115.59972381591797 -0.3484266698360443 0.01568627450980392
2.603245496749878 115.2794189453125 1.3209185600280762 0.7019607843137254
1.6450624465942383 115.52391052246094 -0.3376787304878235 0.01568627450980392
5.344488143920898 114.3712158203125 1.256699800491333 0.011764705882352941
1.8937022686004639 115.44242095947266 -0.32321736216545105 0.011764705882352941
5.342387676239014 114.38048553466797 1.454329252243042 1.0
2.204798936843872 115.33956909179688 -0.3253835141658783 0.0196078431372549
5.385257720947266 114.37483215332031 1.650312066078186 1.0
2.5414161682128906 115.22850036621094 -0.32285529375076294 0.043137254901960784
5.364969730377197 114.39017486572266 1.8494281768798828 0.00784313725490196
2.891653299331665 115.11345672607422 -0.3080313801765442 0.0196078431372549
5.387749671936035 114.39122772216797 2.047104597091675 1.0
3.301142930984497 114.97862243652344 -0.29853877425193787 0.023529411764705882
3.7331619262695312 114.83687591552734 -0.2766423523426056 0.03137254901960784
4.302517414093018 114.64894104003906 -0.2739388048648834 0.01568627450980392
4.931768417358398 114.441650390625 -0.2612462639808655 0.01568627450980392
6.566450595855713 113.90323638916016 -0.22651034593582153 0.027450980392156862
7.616031169891357 113.5578842163086 -0.1961379498243332 0.011764705882352941
9.146333694458008 113.05238342285156 -0.19718880951404572 0.011764705882352941
0.9612917900085449 115.73677825927734 -0.343950480222702 0.011764705882352941
1.159615159034729 115.67090606689453 -0.3364487886428833 0.01568627450980392
2.589003562927246 115.26004791259766 1.191300630569458 0.984313725490196
1.4115376472473145 115.58628845214844 -0.3487626016139984 0.01568627450980392
2.595837116241455 115.263427734375 1.321821689605713 0.2235294117647059
1.6405580043792725 115.51034545898438 -0.33709022402763367 0.01568627450980392
1.8889387845993042 115.42807006835938 -0.3225950300693512 0.011764705882352941
5.360528469085693 114.34635925292969 1.4541810750961304 0.011764705882352941
2.2066805362701416 115.32179260253906 -0.3277837932109833 0.0196078431372549
5.346498012542725 114.359619140625 1.6520905494689941 0.011764705882352941
2.5377376079559326 115.21150207519531 -0.32286813855171204 0.047058823529411764
5.379332065582275 114.35726928710938 1.8505781888961792 0.01568627450980392
2.8876254558563232 115.0953598022461 -0.30795252323150635 0.023529411764705882
5.37932014465332 114.3658447265625 2.048205852508545 0.011764705882352941
3.2967042922973633 114.95923614501953 -0.2983606457710266 0.023529411764705882
3.726482391357422 114.81675720214844 -0.2757696509361267 0.027450980392156862
4.297062397003174 114.62640380859375 -0.2735353410243988 0.01568627450980392
4.907372951507568 114.42346954345703 -0.2556939125061035 0.01568627450980392
5.445277690887451 114.24675750732422 -0.19034144282341003 0.00784313725490196
6.567926406860352 113.87041473388672 -0.2277192920446396 0.023529411764705882
7.620189189910889 113.52049255371094 -0.19766239821910858 0.0196078431372549
5.292520523071289 114.3260498046875 0.4623805284500122 0.011764705882352941
0.958886444568634 115.72412872314453 -0.34440311789512634 0.011764705882352941
1.1603373289108276 115.65638732910156 -0.33869996666908264 0.011764705882352941
2.5868887901306152 115.24125671386719 1.1916040182113647 0.984313725490196
1.4053080081939697 115.57334899902344 -0.3472827672958374 0.01568627450980392
1.6374608278274536 115.49542999267578 -0.33732128143310547 0.01568627450980392
5.346075057983398 114.31295776367188 1.2575989961624146 0.03137254901960784
1.8993624448776245 115.40740203857422 -0.3292164206504822 0.01568627450980392
2.199509859085083 115.30622863769531 -0.3263164460659027 0.023529411764705882
2.531939744949341 115.19422912597656 -0.32211941480636597 0.047058823529411764
5.3646650314331055 114.33242797851562 1.8517242670059204 0.00784313725490196
2.886758327484131 115.07504272460938 -0.3091910183429718 0.023529411764705882
3.288273811340332 114.94007873535156 -0.2968674898147583 0.027450980392156862
3.72837495803833 114.7923812866211 -0.27780622243881226 0.027450980392156862
4.289309024810791 114.60330200195312 -0.2725341022014618 0.01568627450980392
4.904423713684082 114.39643096923828 -0.2561098039150238 0.01568627450980392
5.474863529205322 114.20640563964844 -0.19876359403133392 0.043137254901960784
5.2910332679748535 114.2794418334961 0.055109430104494095 0.011764705882352941
5.276679039001465 114.29326629638672 0.2624554932117462 0.011764705882352941
5.30604887008667 114.29190063476562 0.4596887230873108 0.011764705882352941
0.9500963687896729 115.71451568603516 -0.34098419547080994 0.011764705882352941
2.6108508110046387 115.20869445800781 1.055943250656128 0.33725490196078434
1.169540286064148 115.63948822021484 -0.34564897418022156 0.01568627450980392
2.585022449493408 115.223388671875 1.1918671131134033 0.984313725490196
1.4026427268981934 115.55992126464844 -0.3476204574108124 0.0196078431372549
2.5805623531341553 115.2306137084961 1.3236616849899292 0.9725490196078431
1.6328667402267456 115.48188781738281 -0.3367348909378052 0.01568627450980392
2.633617639541626 115.21805572509766 1.451474666595459 0.011764705882352941
1.8910491466522217 115.39427947998047 -0.3269779682159424 0.01568627450980392
5.346785068511963 114.29312133789062 1.4562547206878662 0.01568627450980392
2.209963321685791 115.28529357910156 -0.33254504203796387 0.027450980392156862
5.359272480010986 114.29740905761719 1.653667688369751 0.058823529411764705
2.5263936519622803 115.1778793334961 -0.3214115500450134 0.047058823529411764
2.8772928714752197 115.05885314941406 -0.3070772588253021 0.023529411764705882
3.2872822284698486 114.91944885253906 -0.2979620397090912 0.0196078431372549
3.732358932495117 114.76844024658203 -0.2804813086986542 0.023529411764705882
4.283707141876221 114.58080291748047 -0.2721334397792816 0.01568627450980392
4.90183162689209 114.3707046508789 -0.25658372044563293 0.01568627450980392
5.620485305786133 114.12654876708984 -0.23598667979240417 0.011764705882352941
6.560750484466553 113.80628204345703 -0.22801244258880615 0.027450980392156862
5.258925914764404 114.27153778076172 0.26536279916763306 0.011764705882352941
9.179176330566406 112.91447448730469 -0.20442189276218414 0.01568627450980392
0.9543828368186951 115.70010375976562 -0.3453650176525116 0.011764705882352941
1.1637431383132935 115.6280288696289 -0.3441932499408722 0.01568627450980392
2.5774686336517334 115.20747375488281 1.1928108930587769 0.984313725490196
1.3982545137405396 115.547119140625 -0.3470664918422699 0.0196078431372549
2.5786490440368652 115.2127456665039 1.3240163326263428 0.9725490196078431
1.6316301822662354 115.46711730957031 -0.33785101771354675 0.01568627450980392
2.6071512699127197 115.20853424072266 1.453675389289856 0.027450980392156862
1.8586368560791016 115.38997650146484 -0.3134280741214752 0.011764705882352941
5.323032855987549 114.27311706542969 1.45805025100708 0.00784313725490196
2.196024179458618 115.27311706542969 -0.32805415987968445 0.03137254901960784
16.95680046081543 110.26283264160156 1.399291753768921 0.023529411764705882
2.524303913116455 115.1602783203125 -0.3221495449542999 0.047058823529411764
5.326614856719971 114.28900146484375 1.853857398033142 1.0
2.874856948852539 115.0401382446289 -0.30768030881881714 0.023529411764705882
5.37008810043335 114.2825927734375 2.0520212650299072 0.0392156862745098
3.279083013534546 114.90137481689453 -0.29651743173599243 0.023529411764705882
3.7254655361175537 114.74832916259766 -0.27961111068725586 0.027450980392156862
4.281655788421631 114.55701446533203 -0.272826224565506 0.01568627450980392
4.906447410583496 114.34237670898438 -0.2590627074241638 0.01568627450980392
6.563730716705322 113.7727279663086 -0.2296314686536789 0.027450980392156862
7.610849857330322 113.41336059570312 -0.19813646376132965 0.0196078431372549
9.179464340209961 112.87268829345703 -0.20504744350910187 0.011764705882352941
0.9487998485565186 115.68931579589844 -0.34389784932136536 0.011764705882352941
2.6012580394744873 115.17476654052734 1.0571091175079346 0.9803921568627451
1.1595687866210938 115.61597442626953 -0.3436721861362457 0.011764705882352941
2.577361822128296 115.18894958496094 1.1928457021713257 0.984313725490196
1.4022163152694702 115.53121185302734 -0.3509739935398102 0.0196078431372549
2.5747969150543213 115.1955337524414 1.3245511054992676 0.9725490196078431
1.6218538284301758 115.45548248291016 -0.33471524715423584 0.0196078431372549
1.8176549673080444 115.3890151977539 -0.295847624540329 0.011764705882352941
16.840707778930664 110.21347045898438 0.923079252243042 0.011764705882352941
2.1941978931427 115.25654602050781 -0.3289235830307007 0.043137254901960784
5.326759338378906 114.25214385986328 1.6561838388442993 0.011764705882352941
2.5256571769714355 115.14139556884766 -0.32433274388313293 0.043137254901960784
16.917774200439453 110.22834014892578 1.888033390045166 0.047058823529411764
2.870591640472412 115.0220718383789 -0.3076055347919464 0.0196078431372549
3.2761762142181396 114.88138580322266 -0.2969788908958435 0.023529411764705882
40.545440673828125 102.10031127929688 4.079935073852539 0.1411764705882353
3.720304489135742 114.72758483886719 -0.2793330252170563 0.027450980392156862
40.696285247802734 102.09464263916016 5.163794040679932 0.12156862745098039
4.275904178619385 114.53453063964844 -0.27242782711982727 0.01568627450980392
4.90185022354126 114.31726837158203 -0.25903579592704773 0.01568627450980392
5.51457405090332 114.10607147216797 -0.21185654401779175 0.00784313725490196
5.2727131843566895 114.20184326171875 0.05671185627579689 0.011764705882352941
5.278809547424316 114.2085189819336 0.2602230906486511 0.01568627450980392
2.612539052963257 115.16493225097656 0.9203776121139526 0.011764705882352941
0.9562580585479736 115.67361450195312 -0.3502258360385895 0.01568627450980392
2.5935816764831543 115.15882110595703 1.0580990314483643 0.9803921568627451
1.1537009477615356 115.60455322265625 -0.34221896529197693 0.01568627450980392
2.571575880050659 115.17240905761719 1.193560004234314 0.984313725490196
1.394385576248169 115.51966857910156 -0.3486373722553253 0.01568627450980392
2.5708882808685303 115.1783218383789 1.325084924697876 0.9725490196078431
1.6239186525344849 115.439453125 -0.33753323554992676 0.023529411764705882
1.8264397382736206 115.36980438232422 -0.30169937014579773 0.01568627450980392
5.322482109069824 114.21682739257812 1.459436297416687 0.0196078431372549
2.1905832290649414 115.24061584472656 -0.3290283679962158 0.043137254901960784
5.344352722167969 114.2176513671875 1.656696081161499 0.01568627450980392
2.5094494819641113 115.12894439697266 -0.319296270608902 0.03529411764705882
5.327960968017578 114.23202514648438 1.8560891151428223 0.011764705882352941
2.8697993755340576 115.00271606445312 -0.3088882267475128 0.0196078431372549
5.346806049346924 114.23394012451172 2.0540528297424316 0.011764705882352941
3.269641876220703 114.86270141601562 -0.2961721122264862 0.023529411764705882
40.19812774658203 102.06932067871094 4.070154190063477 0.1411764705882353
3.7043092250823975 114.7107925415039 -0.27551501989364624 0.03137254901960784
40.269996643066406 102.09026336669922 5.140527248382568 0.12156862745098039
4.275504112243652 114.51007080078125 -0.2736673355102539 0.01568627450980392
4.888072967529297 114.29547119140625 -0.2565070390701294 0.011764705882352941
5.631918907165527 114.03459930419922 -0.2421814352273941 0.011764705882352941
7.595795154571533 113.34617614746094 -0.19680635631084442 0.011764705882352941
0.9601657390594482 115.6584701538086 -0.3545767366886139 0.01568627450980392
2.596710205078125 115.13794708251953 1.0574932098388672 0.9803921568627451
1.149215817451477 115.59185791015625 -0.3416713774204254 0.01568627450980392
2.563542127609253 115.1556396484375 1.1945388317108154 0.984313725490196
1.3896188735961914 115.50617980957031 -0.3480554223060608 0.01568627450980392
2.5647237300872803 115.16088104248047 1.3258376121520996 0.9725490196078431
1.6121068000793457 115.4277572631836 -0.3335188031196594 0.0196078431372549
2.564955472946167 115.1664810180664 1.4576047658920288 0.8784313725490196
1.8725543022155762 115.33558654785156 -0.3252772092819214 0.0196078431372549
5.303688049316406 114.19363403320312 1.4610179662704468 0.01568627450980392
2.184884786605835 115.22449493408203 -0.32833266258239746 0.03137254901960784
16.56510353088379 110.19075775146484 1.4144787788391113 0.03529411764705882
2.513862133026123 115.10784912109375 -0.3228849172592163 0.043137254901960784
16.671661376953125 110.17353057861328 1.8928579092025757 0.03137254901960784
2.8580150604248047 114.9863052368164 -0.306061714887619 0.0196078431372549
5.333615779876709 114.2086181640625 2.055098533630371 0.011764705882352941
3.257344961166382 114.84498596191406 -0.2934200167655945 0.023529411764705882
40.19499588012695 101.91059875488281 4.078751564025879 0.1411764705882353
3.702216625213623 114.68766784667969 -0.27637287974357605 0.03137254901960784
40.210269927978516 101.9511947631836 5.145943641662598 0.12156862745098039
4.265559673309326 114.48770904541016 -0.2721286118030548 0.01568627450980392
4.893759727478027 114.26507568359375 -0.25942865014076233 0.01568627450980392
6.5603532791137695 113.67416381835938 -0.2319551557302475 0.023529411764705882
7.596708297729492 113.30744934082031 -0.1978878229856491 0.0196078431372549
0.949794590473175 115.65019226074219 -0.35021674633026123 0.01568627450980392
2.5911142826080322 115.12226867675781 1.0581690073013306 0.9803921568627451
1.1385579109191895 115.58304595947266 -0.33745160698890686 0.01568627450980392
2.5579795837402344 115.14005279541016 1.1952104568481445 0.984313725490196
1.386988639831543 115.49348449707031 -0.3484272062778473 0.023529411764705882
2.561030626296997 115.14460754394531 1.3263298273086548 0.9725490196078431
1.6126452684402466 115.41311645507812 -0.3355199098587036 0.01568627450980392
2.5650181770324707 115.14884948730469 1.4578771591186523 0.43137254901960786
1.859184741973877 115.3253402709961 -0.32066017389297485 0.047058823529411764
16.326618194580078 110.1918716430664 0.9517794847488403 0.047058823529411764
2.181469678878784 115.20942687988281 -0.3284760117530823 0.03529411764705882
5.3113884925842285 114.17262268066406 1.659196138381958 0.011764705882352941
2.5083701610565186 115.09246826171875 -0.32222169637680054 0.043137254901960784
16.487382888793945 110.17485046386719 1.8947964906692505 0.03137254901960784
2.8574442863464355 114.9679183959961 -0.30738765001296997 0.0196078431372549
40.250057220458984 101.70204162597656 3.0307016372680664 0.11372549019607843
3.2563962936401367 114.82540130615234 -0.2945633828639984 0.023529411764705882
40.18347930908203 101.7713851928711 4.08601188659668 0.1411764705882353
3.697258949279785 114.6680908203125 -0.2761476933956146 0.027450980392156862
40.193050384521484 101.81395721435547 5.153610706329346 0.12156862745098039
4.258214950561523 114.46713256835938 -0.2712416648864746 0.01568627450980392
4.8821187019348145 114.24398040771484 -0.2574611008167267 0.01568627450980392
5.3850531578063965 114.06682586669922 -0.183048278093338 0.023529411764705882
5.240780830383301 114.12908935546875 0.06116676703095436 0.011764705882352941
7.587685585021973 113.27632141113281 -0.1969394087791443 0.011764705882352941
0.9373193383216858 115.6413345336914 -0.3448313772678375 0.011764705882352941
2.5885236263275146 115.1033935546875 1.0583791732788086 0.9803921568627451
1.1373012065887451 115.56912994384766 -0.33877190947532654 0.01568627450980392
2.555438995361328 115.12128448486328 1.1955082416534424 0.984313725490196
1.3854764699935913 115.4787368774414 -0.3496299386024475 0.01568627450980392
2.5547540187835693 115.127197265625 1.3270796537399292 0.9725490196078431
1.6058322191238403 115.39955139160156 -0.3340584933757782 0.0196078431372549
1.8674404621124268 115.30508422851562 -0.3264683485031128 0.011764705882352941
5.283806324005127 114.1441421508789 1.4632664918899536 0.011764705882352941
2.173941135406494 115.1939926147461 -0.3270185887813568 0.047058823529411764
5.320618152618408 114.13926696777344 1.6599355936050415 0.011764705882352941
2.502178430557251 115.07528686523438 -0.32148197293281555 0.043137254901960784
5.313680648803711 114.1503677368164 1.8594481945037842 0.01568627450980392
2.856114149093628 114.94758605957031 -0.30863046646118164 0.01568627450980392
5.332452774047852 114.152099609375 2.0577454566955566 0.011764705882352941
3.2564096450805664 114.80306243896484 -0.2962513566017151 0.023529411764705882
40.22248458862305 101.59685516357422 4.096889019012451 0.1411764705882353
3.6592421531677246 114.6584243774414 -0.2652176320552826 0.06666666666666667
40.220664978027344 101.64352416992188 5.165855407714844 0.12156862745098039
4.251736164093018 114.44348907470703 -0.27079710364341736 0.01568627450980392
4.883975028991699 114.21487426757812 -0.259382039308548 0.01568627450980392
5.656431198120117 113.9352798461914 -0.2519412338733673 0.011764705882352941
5.181782245635986 114.12128448486328 0.07334490120410919 0.0
7.5828070640563965 113.23959350585938 -0.19693024456501007 0.011764705882352941
2.6034226417541504 115.09207153320312 0.9207396507263184 0.7529411764705882
0.9396950602531433 115.62744140625 -0.34823644161224365 0.011764705882352941
2.5806314945220947 115.08751678466797 1.0593637228012085 0.8588235294117647
1.1296446323394775 115.5584487915039 -0.33639249205589294 0.01568627450980392
2.5531656742095947 115.10343170166016 1.1957660913467407 0.984313725490196
1.3791643381118774 115.46662902832031 -0.34819015860557556 0.0196078431372549
2.5506224632263184 115.11003112792969 1.3276091814041138 0.9725490196078431
1.6076903343200684 115.38349151611328 -0.33687707781791687 0.0196078431372549
2.560218095779419 115.11216735839844 1.4588065147399902 0.9803921568627451
1.8639534711837769 115.2901611328125 -0.3266614079475403 0.011764705882352941
5.263436794281006 114.12323760986328 1.46486234664917 0.011764705882352941
2.171846628189087 115.17744445800781 -0.32789167761802673 0.043137254901960784
16.103717803955078 110.15501403808594 1.4307277202606201 0.027450980392156862
2.4980013370513916 115.05836486816406 -0.32150381803512573 0.043137254901960784
16.21156120300293 110.13570404052734 1.899298071861267 0.027450980392156862
2.853306293487549 114.92887878417969 -0.30923765897750854 0.01568627450980392
5.317636966705322 114.12894439697266 2.058670997619629 0.011764705882352941
3.254946708679199 114.78241729736328 -0.29735031723976135 0.023529411764705882
40.2147331237793 101.44712829589844 4.10487174987793 0.1411764705882353
3.5966196060180664 114.65959167480469 -0.24609653651714325 0.058823529411764705
40.20159912109375 101.49790954589844 5.1739888191223145 0.12156862745098039
4.254615306854248 114.41765594482422 -0.2731279134750366 0.01568627450980392
4.884393692016602 114.18772888183594 -0.26085954904556274 0.01568627450980392
5.621393203735352 113.91874694824219 -0.24445204436779022 0.011764705882352941
6.563855171203613 113.57423400878906 -0.2359847128391266 0.023529411764705882
7.572926044464111 113.20671081542969 -0.1959085911512375 0.011764705882352941
2.615870714187622 115.06855010986328 0.9182772636413574 0.4392156862745098
0.9403955936431885 115.61416625976562 -0.3506678342819214 0.01568627450980392
2.5986602306365967 115.06190490722656 1.0565487146377563 0.33725490196078434
1.140068531036377 115.54066467285156 -0.3442671597003937 0.01568627450980392
2.556415557861328 115.08348083496094 1.195347785949707 0.984313725490196
1.376150369644165 115.4532470703125 -0.34853386878967285 0.0196078431372549
2.5483009815216064 115.09217834472656 1.3279587030410767 0.9725490196078431
1.5993728637695312 115.37136840820312 -0.33460086584091187 0.0196078431372549
2.5522818565368652 115.09636688232422 1.4596481323242188 0.9803921568627451
1.8706490993499756 115.27125549316406 -0.33169397711753845 0.027450980392156862
2.558924436569214 115.0995101928711 1.589931607246399 0.01568627450980392
2.1628055572509766 115.16355895996094 -0.32570990920066833 0.03529411764705882
5.290964603424072 114.0931396484375 1.662337303161621 0.011764705882352941
2.492029905319214 115.04212951660156 -0.32080569863319397 0.043137254901960784
16.0602970123291 110.12419128417969 1.9013700485229492 0.027450980392156862
2.8434133529663086 114.91287994384766 -0.3071378171443939 0.023529411764705882
3.2392489910125732 114.7672119140625 -0.29338452219963074 0.027450980392156862
3.62149977684021 114.6275863647461 -0.25585150718688965 0.0392156862745098
40.19329071044922 101.34815216064453 5.182997226715088 0.12156862745098039
4.248415470123291 114.39521789550781 -0.2727371156215668 0.01568627450980392
4.875668525695801 114.16400146484375 -0.25983962416648865 0.01568627450980392
5.214994430541992 114.05253601074219 0.06402216851711273 0.011764705882352941
7.575818061828613 113.16899108886719 -0.19743147492408752 0.011764705882352941
0.9394259452819824 115.60151672363281 -0.35212627053260803 0.01568627450980392
1.1339759826660156 115.52933502197266 -0.34282079339027405 0.01568627450980392
2.5577332973480225 115.06419372558594 1.1951555013656616 0.984313725490196
1.368097186088562 115.44184875488281 -0.34620633721351624 0.023529411764705882
2.544055223464966 115.07501983642578 1.3284865617752075 0.9725490196078431
1.5994426012039185 115.35594940185547 -0.3365708887577057 0.0196078431372549
2.546165704727173 115.07988739013672 1.460355520248413 0.9803921568627451
1.8670530319213867 115.25631713867188 -0.33188727498054504 0.027450980392156862
