-0.966336190700531 120.26054382324219 -0.44553297758102417 0.01568627450980392
2.2901787757873535 126.37690734863281 -0.28917762637138367 0.03529411764705882
-0.8666694164276123 120.44645690917969 -0.45933181047439575 0.01568627450980392
2.7658627033233643 127.27360534667969 -0.21881765127182007 0.023529411764705882
-0.7645614147186279 120.63735961914062 -0.46715861558914185 0.023529411764705882
3.4889590740203857 128.6317901611328 -0.18312539160251617 0.0196078431372549
-0.6641838550567627 120.8258285522461 -0.46323391795158386 0.027450980392156862
3.632443904876709 128.9192657470703 0.08534489572048187 0.023529411764705882
-0.5492287278175354 121.041259765625 -0.4645737409591675 0.03137254901960784
3.648512363433838 128.9705810546875 0.39353278279304504 0.027450980392156862
-0.4127909541130066 121.29617309570312 -0.4776393175125122 0.03529411764705882
3.6432690620422363 128.9822540283203 0.7064095735549927 0.0392156862745098
-0.27360033988952637 121.55696868896484 -0.4801407754421234 0.0392156862745098
7.912663459777832 136.970947265625 0.47419455647468567 0.011764705882352941
-0.1130366176366806 121.85749816894531 -0.4874863624572754 0.011764705882352941
7.964428424835205 137.1035614013672 0.9912221431732178 0.011764705882352941
0.07065414637327194 122.2010498046875 -0.4999150335788727 0.027450980392156862
0.2572043836116791 122.55101776123047 -0.49686330556869507 0.058823529411764705
0.4936686158180237 122.99336242675781 -0.5114144086837769 0.03529411764705882
0.7292997241020203 123.43567657470703 -0.503705620765686 0.0196078431372549
0.9510193467140198 123.85405731201172 -0.46468353271484375 0.00784313725490196
1.219256043434143 124.3593521118164 -0.4301106631755829 0.011764705882352941
19.94562530517578 159.9668731689453 6.806674480438232 0.17647058823529413
1.5173418521881104 124.92118835449219 -0.38711193203926086 0.0392156862745098
19.927207946777344 160.01084899902344 7.948431015014648 0.1803921568627451
1.8825957775115967 125.60871124267578 -0.3476232886314392 0.03529411764705882
19.9071044921875 160.0527801513672 9.106565475463867 0.2
-0.9555003643035889 120.25664520263672 -0.44624757766723633 0.0196078431372549
2.3193392753601074 126.36129760742188 -0.28810542821884155 0.0392156862745098
-0.8560755252838135 120.44078826904297 -0.4589422941207886 0.01568627450980392
2.7968814373016357 127.2547607421875 -0.2172912359237671 0.027450980392156862
-0.7559106349945068 120.62683868408203 -0.46373748779296875 0.027450980392156862
3.522339105606079 128.60719299316406 -0.18087711930274963 0.0196078431372549
-0.648114025592804 120.82716369628906 -0.4676143229007721 0.03137254901960784
3.632617950439453 128.83145141601562 0.09681902825832367 0.023529411764705882
-0.5341697335243225 121.03923797607422 -0.4668799936771393 0.03529411764705882
3.64306640625 128.8719940185547 0.40449339151382446 0.03137254901960784
-0.4012809097766876 121.28593444824219 -0.4753915071487427 0.043137254901960784
3.6349334716796875 128.8782196044922 0.7157922387123108 0.027450980392156862
-0.2577548325061798 121.55260467529297 -0.481299489736557 0.0392156862745098
7.973024368286133 136.93411254882812 0.47672441601753235 0.011764705882352941
-0.0962323397397995 121.85266876220703 -0.4885252118110657 0.011764705882352941
0.0831604078412056 122.18594360351562 -0.49631205201148987 0.027450980392156862
0.27621251344680786 122.54508209228516 -0.4976501762866974 0.058823529411764705
0.5113434791564941 122.98176574707031 -0.5100653171539307 0.03529411764705882
0.7483536601066589 123.4233169555664 -0.502349317073822 0.0196078431372549
0.9759882688522339 123.84938049316406 -0.466211199760437 0.00784313725490196
1.2411845922470093 124.34542846679688 -0.42873767018318176 0.011764705882352941
19.958288192749023 159.6689910888672 6.785172462463379 0.17254901960784313
1.5456817150115967 124.9148178100586 -0.3881579339504242 0.043137254901960784
19.917030334472656 159.66969299316406 7.914710998535156 0.17647058823529413
1.912164330482483 125.59952545166016 -0.347967267036438 0.03529411764705882
19.912399291992188 159.74037170410156 9.070466995239258 0.09803921568627451
-0.9430089592933655 120.2556381225586 -0.44912537932395935 0.027450980392156862
2.3493945598602295 126.3473129272461 -0.28742602467536926 0.03529411764705882
-0.8471844792366028 120.43211364746094 -0.456465482711792 0.0196078431372549
2.8354151248931885 127.2496337890625 -0.2185697853565216 0.023529411764705882
-0.7396358251571655 120.6298599243164 -0.46934273838996887 0.027450980392156862
3.55847430229187 128.5876922607422 -0.17954139411449432 0.0196078431372549
-0.6380500197410583 120.8177490234375 -0.4652535617351532 0.027450980392156862
3.6351547241210938 128.74896240234375 0.10750512033700943 0.023529411764705882
-0.5225881934165955 121.03097534179688 -0.46549856662750244 0.03137254901960784
3.6427783966064453 128.78402709960938 0.41416269540786743 0.03137254901960784
-0.3862924873828888 121.28192901611328 -0.47666242718696594 0.03137254901960784
3.640310287475586 128.8005828857422 0.7226583957672119 0.03137254901960784
-0.2392471730709076 121.55293273925781 -0.48496973514556885 0.043137254901960784
4.601763725280762 130.5891876220703 0.9114789366722107 1.0
-0.0785365179181099 121.84937286376953 -0.4903566241264343 0.0196078431372549
0.10553941130638123 122.18861389160156 -0.5009867548942566 0.023529411764705882
0.29339107871055603 122.53582000732422 -0.49701520800590515 0.058823529411764705
15.19511890411377 150.24136352539062 2.1935949325561523 0.09803921568627451
0.5298928022384644 122.97175598144531 -0.5093796253204346 0.03529411764705882
0.7729005217552185 123.4208755493164 -0.5047205686569214 0.0196078431372549
0.9991070628166199 123.84125518798828 -0.4665796160697937 0.011764705882352941
1.263063907623291 124.33143615722656 -0.4273621141910553 0.011764705882352941
19.963666915893555 159.36093139648438 6.762405872344971 0.17254901960784313
1.5693347454071045 124.89984893798828 -0.38676154613494873 0.047058823529411764
19.950883865356445 159.41473388671875 7.893245697021484 0.17647058823529413
1.9407787322998047 125.58851623535156 -0.3478638529777527 0.0392156862745098
19.906635284423828 159.41090393066406 9.031356811523438 0.20392156862745098
-0.9313410520553589 120.25312805175781 -0.4509184658527374 0.03137254901960784
2.3803651332855225 126.3349380493164 -0.2871387302875519 0.03529411764705882
-0.8349403142929077 120.4293441772461 -0.4581589996814728 0.01568627450980392
2.868257522583008 127.23402404785156 -0.21773569285869598 0.027450980392156862
-0.7310363054275513 120.61927795410156 -0.4659193754196167 0.023529411764705882
3.5964646339416504 128.57154846191406 -0.17881111800670624 0.0196078431372549
-0.6271569132804871 120.8098373413086 -0.46385398507118225 0.03529411764705882
3.6372389793395996 128.6665802001953 0.11818151921033859 0.023529411764705882
-0.504900336265564 121.03348541259766 -0.47056350111961365 0.03137254901960784
3.6448798179626465 128.701416015625 0.42318272590637207 0.03137254901960784
-0.3748457729816437 121.27162170410156 -0.4744117856025696 0.03137254901960784
3.6423888206481934 128.71780395507812 0.7300158143043518 0.03137254901960784
-0.2287537306547165 121.5389633178711 -0.481095552444458 0.047058823529411764
4.623804569244385 130.5294952392578 0.9155657291412354 1.0
-0.06263627111911774 121.84281921386719 -0.49059438705444336 0.023529411764705882
0.12160340696573257 122.17987823486328 -0.5003898739814758 0.027450980392156862
0.31420615315437317 122.53302001953125 -0.4992145299911499 0.058823529411764705
0.5502578616142273 122.96498107910156 -0.5100221037864685 0.03529411764705882
0.7928286194801331 123.41004943847656 -0.5039800405502319 0.0196078431372549
1.0203475952148438 123.8297119140625 -0.465790331363678 0.011764705882352941
1.2886507511138916 124.32411193847656 -0.4281126856803894 0.011764705882352941
19.964523315429688 159.04800415039062 6.738987922668457 0.17254901960784313
1.5938823223114014 124.88651275634766 -0.38584938645362854 0.043137254901960784
19.92869758605957 159.05870056152344 7.8571858406066895 0.17647058823529413
1.9674797058105469 125.57400512695312 -0.34687167406082153 0.0392156862745098
19.921586990356445 159.1236572265625 8.999345779418945 0.20392156862745098
-0.9165922403335571 120.25463104248047 -0.45593497157096863 0.03137254901960784
2.411008358001709 126.31816101074219 -0.28599393367767334 0.03529411764705882
-0.8238139748573303 120.42324829101562 -0.4577432870864868 0.0196078431372549
2.8999478816986084 127.2121810913086 -0.21577872335910797 0.027450980392156862
-0.7201427221298218 120.61133575439453 -0.46447739005088806 0.027450980392156862
3.6277644634246826 128.53863525390625 -0.17525598406791687 0.0196078431372549
-0.6156426072120667 120.80152893066406 -0.46242910623550415 0.03529411764705882
3.6399049758911133 128.58145141601562 0.12918156385421753 0.023529411764705882
-0.4917728006839752 121.02629089355469 -0.47007307410240173 0.03137254901960784
3.6543140411376953 128.6282196044922 0.43099260330200195 0.03137254901960784
-0.35914814472198486 121.26712036132812 -0.47565096616744995 0.03529411764705882
3.646014451980591 128.63401794433594 0.7374383807182312 0.03137254901960784
-0.21305233240127563 121.53243255615234 -0.4813803732395172 0.0392156862745098
4.632421493530273 130.4405517578125 0.9216523170471191 1.0
-0.046827055513858795 121.83416748046875 -0.4900037348270416 0.023529411764705882
0.1403585523366928 122.17383575439453 -0.501261830329895 0.023529411764705882
0.3304586112499237 122.51985168457031 -0.4971207082271576 0.06274509803921569
0.5697838068008423 122.95428466796875 -0.5092926025390625 0.03529411764705882
0.8166278004646301 123.40351104736328 -0.5050588250160217 0.023529411764705882
1.0427284240722656 123.81745910644531 -0.4649541974067688 0.011764705882352941
1.3098293542861938 124.30591583251953 -0.42561954259872437 0.011764705882352941
19.980379104614258 158.74899291992188 6.717854022979736 0.16862745098039217
1.6187996864318848 124.87065124511719 -0.3843959867954254 0.043137254901960784
19.943012237548828 158.75677490234375 7.829643726348877 0.17254901960784313
1.9965662956237793 125.560302734375 -0.34626245498657227 0.0392156862745098
19.943117141723633 158.83453369140625 8.96786880493164 0.20392156862745098
-0.913077175617218 120.23925018310547 -0.4480072855949402 0.03137254901960784
2.443175792694092 126.31160736083984 -0.28694674372673035 0.0392156862745098
-0.8130223751068115 120.41924285888672 -0.4584124684333801 0.0196078431372549
2.9347658157348633 127.20421600341797 -0.21640439331531525 0.027450980392156862
-0.7079158425331116 120.6085433959961 -0.46608805656433105 0.03137254901960784
3.649123430252075 128.49749755859375 -0.17002081871032715 0.0196078431372549
-0.6037103533744812 120.79695129394531 -0.4629758298397064 0.027450980392156862
3.6400246620178223 128.5021209716797 0.1395040601491928 0.023529411764705882
-0.4809369742870331 121.0182876586914 -0.4687122702598572 0.03137254901960784
3.6603000164031982 128.55905151367188 0.4384317100048065 0.03529411764705882
-0.3440261781215668 121.26493072509766 -0.4778219759464264 0.03529411764705882
3.6451587677001953 128.5525360107422 0.7447001934051514 0.03137254901960784
-0.19802263379096985 121.52828979492188 -0.48255860805511475 0.0392156862745098
4.648523807525635 130.37693786621094 0.9260008931159973 1.0
-0.033622317016124725 121.82478332519531 -0.48867884278297424 0.023529411764705882
0.1554822027683258 122.16548919677734 -0.5006937980651855 0.027450980392156862
0.3493849039077759 122.51581573486328 -0.49864065647125244 0.06274509803921569
0.5900176763534546 122.9495849609375 -0.5106324553489685 0.03529411764705882
0.8335148096084595 123.38985443115234 -0.503112256526947 0.023529411764705882
1.0693227052688599 123.8180923461914 -0.46824076771736145 0.011764705882352941
1.3397966623306274 124.30919647216797 -0.42960086464881897 0.011764705882352941
19.983993530273438 158.4652557373047 6.696965217590332 0.16862745098039217
1.6409363746643066 124.8562240600586 -0.3830416202545166 0.047058823529411764
19.955556869506836 158.4892578125 7.805298805236816 0.17254901960784313
2.024566411972046 125.5515365600586 -0.3466443121433258 0.0392156862745098
19.923967361450195 158.508544921875 8.928071975708008 0.20784313725490197
-0.9042832255363464 120.23051452636719 -0.4454475939273834 0.03529411764705882
2.4805080890655518 126.30654907226562 -0.28856369853019714 0.047058823529411764
-0.8036530613899231 120.41012573242188 -0.45590925216674805 0.0196078431372549
2.9692437648773193 127.18730163574219 -0.21548967063426971 0.027450980392156862
-0.6953229308128357 120.60352325439453 -0.46664777398109436 0.027450980392156862
3.6577439308166504 128.42486572265625 -0.15945930778980255 0.0196078431372549
-0.591366708278656 120.79008483886719 -0.46250981092453003 0.03137254901960784
3.6388161182403564 128.4120330810547 0.15125787258148193 0.023529411764705882
-0.47142675518989563 121.00487518310547 -0.4645359218120575 0.027450980392156862
3.6699063777923584 128.48773193359375 0.4460142254829407 0.03137254901960784
-0.3346349596977234 121.24943542480469 -0.4729016125202179 0.027450980392156862
3.6507680416107178 128.4741668701172 0.7516043782234192 0.03137254901960784
-0.17961914837360382 121.52637481689453 -0.4853499233722687 0.043137254901960784
4.66013240814209 130.2951202392578 0.9315931797027588 1.0
-0.016039099544286728 121.81920623779297 -0.4896732568740845 0.023529411764705882
0.1723608672618866 122.1561050415039 -0.5000566244125366 0.023529411764705882
0.3655588924884796 122.50254821777344 -0.49654242396354675 0.058823529411764705
0.6104307770729065 122.94039916992188 -0.5105618834495544 0.03529411764705882
0.8544458150863647 123.37821960449219 -0.5023220777511597 0.023529411764705882
1.084066390991211 123.79237365722656 -0.4627852439880371 0.011764705882352941
1.3704421520233154 124.30760192871094 -0.43241721391677856 0.011764705882352941
20.005205154418945 158.1826171875 6.677611827850342 0.3333333333333333
1.6628634929656982 124.83515930175781 -0.38012221455574036 0.047058823529411764
19.982894897460938 158.21755981445312 7.7819671630859375 0.16862745098039217
2.05069899559021 125.53254699707031 -0.3447016179561615 0.0392156862745098
19.947874069213867 158.2305450439453 8.898311614990234 0.20784313725490197
-0.8960800766944885 120.22206115722656 -0.4429081976413727 0.0392156862745098
2.5036137104034424 126.2801284790039 -0.2850913107395172 0.047058823529411764
-0.7914409637451172 120.4072036743164 -0.457595556974411 0.01568627450980392
3.0019073486328125 127.1712646484375 -0.21463704109191895 0.027450980392156862
-0.685113251209259 120.59581756591797 -0.4652249217033386 0.027450980392156862
3.660069704055786 128.34652709960938 -0.14776340126991272 0.0196078431372549
-0.5796956419944763 120.78355407714844 -0.4620668292045593 0.03529411764705882
3.6439285278320312 128.3386993408203 0.16060277819633484 0.0196078431372549
-0.4581855535507202 120.99949645996094 -0.46498802304267883 0.023529411764705882
3.6663448810577393 128.3985595703125 0.45584550499916077 0.01568627450980392
-0.3178999125957489 121.24829864501953 -0.47591954469680786 0.03137254901960784
3.651991844177246 128.39352416992188 0.7587559819221497 0.03137254901960784
-0.16837896406650543 121.51383209228516 -0.48230814933776855 0.0392156862745098
4.644447326660156 130.1711883544922 0.9400680065155029 1.0
-0.0011377009795978665 121.81085968017578 -0.4891076385974884 0.023529411764705882
0.18924956023693085 122.14877319335938 -0.5002024173736572 0.027450980392156862
0.38635095953941345 122.49947357177734 -0.4987289309501648 0.058823529411764705
0.6269628405570984 122.92681121826172 -0.5085337162017822 0.03529411764705882
0.873286783695221 123.36548614501953 -0.5009503960609436 0.023529411764705882
1.0889122486114502 123.7523422241211 -0.45218828320503235 0.00784313725490196
1.3816139698028564 124.27483367919922 -0.4251795709133148 0.011764705882352941
20.007061004638672 157.88516235351562 6.655691146850586 0.16470588235294117
1.638005256652832 124.7356948852539 -0.354387104511261 0.07450980392156863
19.984243392944336 157.91891479492188 7.753799915313721 0.16862745098039217
2.0791571140289307 125.52108001708984 -0.3445778787136078 0.0392156862745098
19.96217155456543 157.95506286621094 8.867952346801758 0.21176470588235294
-0.8827502131462097 120.2222671508789 -0.4468563199043274 0.0392156862745098
2.5354058742523193 126.2689437866211 -0.28517669439315796 0.0392156862745098
-0.7818407416343689 120.39982604980469 -0.4561542570590973 0.0196078431372549
3.038451671600342 127.16194915771484 -0.21517878770828247 0.027450980392156862
-0.6740491986274719 120.5895767211914 -0.4648027718067169 0.027450980392156862
3.6639351844787598 128.271728515625 -0.13668499886989594 0.0196078431372549
-0.568935215473175 120.77546691894531 -0.460660845041275 0.03137254901960784
3.655540704727173 128.27749633789062 0.16813495755195618 0.0196078431372549
-0.4404465854167938 121.00171661376953 -0.47003865242004395 0.027450980392156862
3.64848256111145 128.2853240966797 0.46862921118736267 0.00784313725490196
-0.30387768149375916 121.24244689941406 -0.4762982726097107 0.03137254901960784
3.6508028507232666 128.3095245361328 0.7662287354469299 0.03137254901960784
-0.15443412959575653 121.50596618652344 -0.48177605867385864 0.03137254901960784
4.669526100158691 130.120361328125 0.9435301423072815 1.0
0.01373946201056242 121.8024673461914 -0.48853999376296997 0.023529411764705882
0.20612293481826782 122.1413803100586 -0.5003456473350525 0.027450980392156862
0.40715712308883667 122.49632263183594 -0.50091153383255 0.058823529411764705
0.6462908387184143 122.91807556152344 -0.5084967613220215 0.03529411764705882
0.8920851945877075 123.35269927978516 -0.4995761215686798 0.023529411764705882
1.1204352378845215 123.75874328613281 -0.45772525668144226 0.00784313725490196
1.4080684185028076 124.26876068115234 -0.42644205689430237 0.011764705882352941
20.00341033935547 157.58114624023438 6.632909297943115 0.16470588235294117
1.635841727256775 124.67677307128906 -0.34034040570259094 0.06666666666666667
20.004348754882812 157.656982421875 7.730893611907959 0.16862745098039217
2.109541416168213 125.51289367675781 -0.34533166885375977 0.03529411764705882
19.956642150878906 157.64710998535156 8.831891059875488 0.21176470588235294
-0.8705825805664062 120.21922302246094 -0.4486182630062103 0.03529411764705882
2.566807985305786 126.25334930419922 -0.28440502285957336 0.0392156862745098
-0.7699378728866577 120.39501953125 -0.4567728340625763 0.023529411764705882
3.072800636291504 127.14468383789062 -0.2142486572265625 0.027450980392156862
-0.66061931848526 120.58592224121094 -0.46635913848876953 0.03137254901960784
3.6752536296844482 128.2061767578125 -0.12736418843269348 0.0196078431372549
-0.5539740324020386 120.77301025390625 -0.4630739688873291 0.03137254901960784
3.6479601860046387 128.17913818359375 0.1811453402042389 0.0196078431372549
-0.4310533106327057 120.98821258544922 -0.4658590853214264 0.027450980392156862
3.65073823928833 128.2039794921875 0.4774501919746399 1.0
-0.2918919622898102 121.23149871826172 -0.4740108251571655 0.027450980392156862
3.6560399532318115 128.23318481445312 0.7729384303092957 0.03137254901960784
-0.1397435963153839 121.49761199951172 -0.4812125563621521 0.03529411764705882
4.705542087554932 130.0838165283203 0.9460092186927795 1.0
0.03314339742064476 121.79988098144531 -0.49111467599868774 0.03137254901960784
0.225740447640419 122.1366195678711 -0.5019550919532776 0.027450980392156862
0.42418020963668823 122.4844970703125 -0.49951428174972534 0.06274509803921569
0.6656579971313477 122.90706634521484 -0.507753849029541 0.03529411764705882
0.9167304635047913 123.3474349975586 -0.5012586712837219 0.0392156862745098
1.1474063396453857 123.75442504882812 -0.45975548028945923 0.00784313725490196
1.433834433555603 124.258544921875 -0.4265901744365692 0.011764705882352941
20.01775360107422 157.29611206054688 6.613038063049316 0.1607843137254902
1.6580744981765747 124.65744018554688 -0.33791711926460266 0.06666666666666667
20.011444091796875 157.35855102539062 7.703428268432617 0.16470588235294117
2.1384475231170654 125.49870300292969 -0.34470126032829285 0.03529411764705882
19.973825454711914 157.3666534423828 8.801431655883789 0.21568627450980393
-0.8633112907409668 120.20923614501953 -0.4449942409992218 0.0392156862745098
2.599536657333374 126.24363708496094 -0.2848752737045288 0.0392156862745098
-0.7621480226516724 120.38465881347656 -0.453246146440506 0.023529411764705882
3.1073343753814697 127.1317138671875 -0.21408002078533173 0.023529411764705882
-0.6504781246185303 120.578125 -0.4649319648742676 0.03137254901960784
3.6822946071624756 128.1383514404297 -0.11751685291528702 0.0196078431372549
-0.5414527654647827 120.76786041259766 -0.46358686685562134 0.03137254901960784
3.657804012298584 128.11636352539062 0.18891967833042145 0.0196078431372549
-0.4178469777107239 120.9826889038086 -0.46630504727363586 0.027450980392156862
3.6486127376556396 128.12039184570312 0.48660942912101746 1.0
-0.276991605758667 121.22710418701172 -0.47526422142982483 0.03137254901960784
3.6559276580810547 128.15286254882812 0.7800600528717041 0.03137254901960784
-0.12770916521549225 121.48653411865234 -0.4790038466453552 0.03529411764705882
4.732162952423096 130.03634643554688 0.9492336511611938 1.0
0.04704846069216728 121.78980255126953 -0.4897485077381134 0.023529411764705882
0.243531733751297 122.13069915771484 -0.5028434991836548 0.023529411764705882
0.44974568486213684 122.48925018310547 -0.505229115486145 0.06666666666666667
0.6839746832847595 122.89656829833984 -0.5070474147796631 0.03529411764705882
0.931598961353302 123.32796478271484 -0.49739935994148254 0.0392156862745098
1.162544846534729 123.73251342773438 -0.4554927945137024 0.00784313725490196
1.4612575769424438 124.25395202636719 -0.42837440967559814 0.011764705882352941
20.0206241607666 157.0102081298828 6.592246055603027 0.1607843137254902
1.688720703125 124.6555404663086 -0.3404011130332947 0.07450980392156863
20.010915756225586 157.0662078857422 7.6759114265441895 0.16470588235294117
2.1638808250427246 125.48188781738281 -0.34324172139167786 0.03529411764705882
19.98253631591797 157.09046936035156 8.770673751831055 0.21568627450980393
-0.8490914106369019 120.21074676513672 -0.4500165283679962 0.03137254901960784
1.658179521560669 124.57763671875 0.1015770435333252 0.023529411764705882
-0.7508639097213745 120.38011932373047 -0.45388421416282654 0.0196078431372549
3.1388471126556396 127.11353302001953 -0.21285834908485413 0.027450980392156862
-0.6394715905189514 120.57176971435547 -0.46450525522232056 0.03137254901960784
3.6749722957611084 128.04672241210938 -0.10342833399772644 0.01568627450980392
-0.5298517942428589 120.76116943359375 -0.46313712000846863 0.03137254901960784
3.648283004760742 128.02110290527344 0.20157401263713837 0.0196078431372549
-0.40832212567329407 120.9710464477539 -0.46307024359703064 0.03137254901960784
3.6490261554718018 128.04209899902344 0.49512410163879395 0.00784313725490196
-0.26302337646484375 121.22112274169922 -0.4756365418434143 0.03137254901960784
3.6553657054901123 128.07264709472656 0.7871713638305664 0.03137254901960784
-0.11104881763458252 121.48321533203125 -0.4809753894805908 0.0392156862745098
4.740480899810791 129.95779418945312 0.9545860290527344 1.0
0.06185711920261383 121.78125762939453 -0.4891744554042816 0.023529411764705882
0.25750964879989624 122.11836242675781 -0.5007266402244568 0.023529411764705882
0.4600439667701721 122.46819305419922 -0.4996168911457062 0.058823529411764705
0.7032198905944824 122.88764190673828 -0.5070024728775024 0.03529411764705882
0.9492887854576111 123.31336975097656 -0.49539896845817566 0.0392156862745098
1.1834383010864258 123.720458984375 -0.4546828269958496 0.00784313725490196
1.4798550605773926 124.23431396484375 -0.4253791868686676 0.011764705882352941
20.028850555419922 156.73675537109375 6.5728654861450195 0.1568627450980392
1.7164349555969238 124.64850616455078 -0.3414221704006195 0.07450980392156863
20.019624710083008 156.79319763183594 7.651138782501221 0.1607843137254902
2.1892507076263428 125.46499633789062 -0.34177935123443604 0.03529411764705882
19.997583389282227 156.82838439941406 8.74227523803711 0.21568627450980393
-0.8409972190856934 120.2021484375 -0.4474713206291199 0.027450980392156862
1.6626514196395874 124.53195190429688 0.10998862981796265 0.11764705882352941
-0.740479588508606 120.37408447265625 -0.4534795582294464 0.0196078431372549
3.172307252883911 127.09864044189453 -0.21233052015304565 0.027450980392156862
-0.6293863654136658 120.56391143798828 -0.46307605504989624 0.03529411764705882
3.670149803161621 127.96036529541016 -0.09026278555393219 0.01568627450980392
-0.5164482593536377 120.75743865966797 -0.4646073579788208 0.027450980392156862
3.668426513671875 127.97728729248047 0.20650555193424225 0.0196078431372549
-0.3933192491531372 120.96849060058594 -0.4653517007827759 0.023529411764705882
3.651024580001831 127.96732330322266 0.503207266330719 1.0
-0.24999946355819702 121.21355438232422 -0.47512900829315186 0.0392156862745098
3.661425828933716 128.00457763671875 0.7931196093559265 0.03137254901960784
-0.0934440940618515 121.48138427734375 -0.4837802052497864 0.043137254901960784
4.7867326736450195 129.94476318359375 0.9554440975189209 1.0
0.07948305457830429 121.77738189697266 -0.4909786283969879 0.023529411764705882
0.2743057608604431 122.1107406616211 -0.5008597373962402 0.027450980392156862
0.4769808351993561 122.4583511352539 -0.4989568889141083 0.058823529411764705
0.7224427461624146 122.87865447998047 -0.5069547295570374 0.03529411764705882
0.9639938473701477 123.2938232421875 -0.491537868976593 0.043137254901960784
1.2033121585845947 123.70669555664062 -0.4532949924468994 0.00784313725490196
1.5052779912948608 124.22623443603516 -0.42609483003616333 0.011764705882352941
20.03858184814453 156.4688262939453 6.554072380065918 0.1568627450980392
1.7421659231185913 124.6380386352539 -0.34146764874458313 0.07058823529411765
20.021894454956055 156.51194763183594 7.625067710876465 0.1607843137254902
1.7167023420333862 124.60920715332031 -0.12015374004840851 0.0196078431372549
19.996410369873047 156.5408935546875 8.709357261657715 0.2196078431372549
-0.8311719298362732 120.19639587402344 -0.4470864534378052 0.03137254901960784
1.674914836883545 124.49978637695312 0.11524028331041336 0.13333333333333333
-0.731904923915863 120.36510467529297 -0.4509921967983246 0.0196078431372549
1.6579093933105469 124.48479461669922 0.3239693343639374 0.03529411764705882
-0.62204909324646 120.55158996582031 -0.45864319801330566 0.0392156862745098
3.6668641567230225 127.87753295898438 -0.0777154266834259 0.01568627450980392
-0.5039633512496948 120.75215911865234 -0.46511462330818176 0.027450980392156862
3.6741859912872314 127.9095687866211 0.21503007411956787 0.0196078431372549
-0.38016289472579956 120.96284484863281 -0.46579164266586304 0.023529411764705882
3.646533727645874 127.88238525390625 0.5125452280044556 0.00784313725490196
-0.2398068606853485 121.20133972167969 -0.47198641300201416 0.027450980392156862
3.6569743156433105 127.91941833496094 0.8007051944732666 0.03137254901960784
-0.0796031579375267 121.47328186035156 -0.48323801159858704 0.03529411764705882
4.810651779174805 129.8937530517578 0.9589024186134338 1.0
0.09425290673971176 121.76873779296875 -0.4904000759124756 0.023529411764705882
0.2891610860824585 122.09989929199219 -0.49949005246162415 0.027450980392156862
0.4967910051345825 122.45325469970703 -0.5004162192344666 0.058823529411764705
0.7435922622680664 122.87283325195312 -0.5082306265830994 0.03529411764705882
0.9786111116409302 123.27425384521484 -0.4876767098903656 0.043137254901960784
1.2231370210647583 123.69287109375 -0.4519045650959015 0.00784313725490196
1.5237460136413574 124.20648193359375 -0.4230955243110657 0.011764705882352941
20.035844802856445 156.18231201171875 6.532968521118164 0.1568627450980392
1.7788403034210205 124.64579772949219 -0.34684690833091736 0.0784313725490196
20.02562141418457 156.23622131347656 7.5997209548950195 0.1607843137254902
1.7132654190063477 124.55018615722656 -0.10734664648771286 0.047058823529411764
20.000619888305664 156.26577758789062 8.678498268127441 0.2196078431372549
-0.8181526064872742 120.194580078125 -0.44991952180862427 0.03137254901960784
1.6468839645385742 124.39795684814453 0.13670207560062408 0.16862745098039217
-0.7173920273780823 120.3644790649414 -0.45472490787506104 0.023529411764705882
1.6357166767120361 124.39271545410156 0.34096601605415344 0.058823529411764705
-0.6096077561378479 120.5462646484375 -0.45918983221054077 0.03529411764705882
3.669052839279175 127.80050659179688 -0.06631643325090408 0.01568627450980392
-0.49084681272506714 120.7464599609375 -0.46559464931488037 0.027450980392156862
3.671279191970825 127.82378387451172 0.2261865884065628 0.0196078431372549
-0.3644755780696869 120.95977783203125 -0.46804115176200867 0.023529411764705882
3.655667543411255 127.81697082519531 0.5194199085235596 0.00784313725490196
-0.22330133616924286 121.19786834716797 -0.4740803837776184 0.03137254901960784
3.661062002182007 127.84527587890625 0.8072030544281006 0.03137254901960784
-0.06786882132291794 121.46003723144531 -0.4801566004753113 0.03529411764705882
4.838585376739502 129.84483337402344 0.9622116088867188 1.0
0.10694073140621185 121.7548599243164 -0.48740825057029724 0.027450980392156862
0.3067875802516937 122.0916519165039 -0.499583899974823 0.027450980392156862
0.5175414085388184 122.44754028320312 -0.5018350481987 0.06274509803921569
0.7628119587898254 122.86150360107422 -0.5074737668037415 0.03529411764705882
0.988301157951355 123.24425506591797 -0.48005732893943787 0.043137254901960784
1.2470462322235107 123.68321990966797 -0.45219093561172485 0.00784313725490196
1.5423754453659058 124.1843032836914 -0.4195158779621124 0.011764705882352941
20.056400299072266 155.923095703125 6.515827178955078 0.15294117647058825
1.8309694528579712 124.67587280273438 -0.35895615816116333 0.07450980392156863
20.029571533203125 155.94830322265625 7.573339462280273 0.1568627450980392
1.728912115097046 124.52057647705078 -0.10241460055112839 0.0784313725490196
20.01505470275879 155.9955596923828 8.649371147155762 0.2235294117647059
-0.8038820028305054 120.19589233398438 -0.45493173599243164 0.01568627450980392
1.633215069770813 124.323974609375 0.15179124474525452 0.09803921568627451
-0.7088651657104492 120.35543823242188 -0.4522345960140228 0.01568627450980392
1.6117032766342163 124.3016128540039 0.3578955829143524 0.08235294117647059
-0.595036506652832 120.54566192626953 -0.46275997161865234 0.027450980392156862
1.5570429563522339 124.22410583496094 0.5707647204399109 0.027450980392156862
-0.4811634421348572 120.73662567138672 -0.4632178544998169 0.027450980392156862
1.6461765766143799 124.38508605957031 0.7432087063789368 0.011764705882352941
-0.3522704541683197 120.95252990722656 -0.4675579369068146 0.023529411764705882
3.6543846130371094 127.73907470703125 0.5278961062431335 0.00784313725490196
-0.2094028890132904 121.19169616699219 -0.47444501519203186 0.03137254901960784
3.6618456840515137 127.77062225341797 0.8137823939323425 0.027450980392156862
-0.04836398735642433 121.46112823486328 -0.48462408781051636 0.043137254901960784
4.860992431640625 129.7920379638672 0.9657849669456482 1.0
0.12356843799352646 121.74925231933594 -0.48841193318367004 0.027450980392156862
0.32546019554138184 122.08702850341797 -0.5012101531028748 0.023529411764705882
0.5432243347167969 122.45186614990234 -0.5075278878211975 0.06666666666666667
0.7790138721466064 122.84748840332031 -0.5054284930229187 0.03137254901960784
1.0046943426132202 123.2278823852539 -0.4774337112903595 0.043137254901960784
1.2618011236190796 123.66108703613281 -0.4479219615459442 0.00784313725490196
1.5676922798156738 124.17599487304688 -0.4202217757701874 0.011764705882352941
20.07186508178711 155.67327880859375 6.499013900756836 0.3058823529411765
1.8981432914733887 124.73300170898438 -0.3788595199584961 0.054901960784313725
20.050424575805664 155.70748901367188 7.5529985427856445 0.1568627450980392
1.7512136697769165 124.50505828857422 -0.10105198621749878 0.0784313725490196
20.011262893676758 155.71263122558594 8.616945266723633 0.2235294117647059
-0.7784597277641296 120.21598052978516 -0.4740009903907776 1.0
1.638283133506775 124.28438568115234 0.15894269943237305 0.10980392156862745
-0.7036778330802917 120.3423843383789 -0.446646124124527 0.01568627450980392
1.6278866529464722 124.28045654296875 0.3604840338230133 0.0784313725490196
-0.5838169455528259 120.54096984863281 -0.46335074305534363 0.027450980392156862
1.5709013938903809 124.1996841430664 0.5737187266349792 0.023529411764705882
-0.4730919599533081 120.72566986083984 -0.4599057734012604 0.03137254901960784
-0.3379431366920471 120.95016479492188 -0.46985626220703125 0.027450980392156862
3.6528890132904053 127.66580963134766 0.5358684062957764 1.0
-0.1943378746509552 121.18897247314453 -0.47659075260162354 0.03137254901960784
3.664496898651123 127.7040023803711 0.8196233510971069 0.03137254901960784
-0.03631090745329857 121.4518051147461 -0.48327112197875977 0.043137254901960784
4.90052604675293 129.77305603027344 0.9670414328575134 1.0
0.1393703669309616 121.74407958984375 -0.4894452691078186 0.023529411764705882
0.34130415320396423 122.0797119140625 -0.5013683438301086 0.027450980392156862
0.5572064518928528 122.43914031982422 -0.5054803490638733 0.06666666666666667
0.800095796585083 122.84367370605469 -0.5073979496955872 0.03529411764705882
1.0149619579315186 123.20401000976562 -0.4717583954334259 0.0392156862745098
1.2602653503417969 123.61512756347656 -0.4350823760032654 0.00784313725490196
1.5816771984100342 124.15189361572266 -0.41567808389663696 0.011764705882352941
20.050853729248047 155.37989807128906 6.47608757019043 0.15294117647058825
1.920827865600586 124.71943664550781 -0.37795695662498474 0.054901960784313725
20.047134399414062 155.44361877441406 7.528303623199463 0.1568627450980392
1.7792855501174927 124.50190734863281 -0.10281474143266678 0.07058823529411765
20.01846694946289 155.46640014648438 8.589923858642578 0.2235294117647059
-0.7978275418281555 120.16281127929688 -0.4379545748233795 0.011764705882352941
1.6579586267471313 124.26337432861328 0.16146795451641083 0.12156862745098039
-0.6800428628921509 120.35606384277344 -0.46077361702919006 0.011764705882352941
1.6485342979431152 124.26111602783203 0.36247703433036804 0.0784313725490196
-0.5704725384712219 120.53697204589844 -0.464891254901886 0.023529411764705882
1.5891759395599365 124.17713928222656 0.5761668086051941 0.023529411764705882
-0.45630744099617004 120.72579193115234 -0.46422022581100464 0.03137254901960784
1.6585628986358643 124.3036117553711 0.7532110810279846 0.050980392156862744
-0.32604074478149414 120.94092559814453 -0.4684236943721771 0.023529411764705882
3.6629481315612793 127.60401916503906 0.5422996878623962 0.00784313725490196
-0.1797422617673874 121.1822738647461 -0.47692224383354187 0.03137254901960784
3.668398857116699 127.63184356689453 0.8259307742118835 0.03137254901960784
-0.017941344529390335 121.44921875 -0.4860311448574066 0.043137254901960784
4.9475202560424805 129.7563934326172 0.9681288003921509 1.0
0.15582282841205597 121.73631286621094 -0.48961880803108215 0.023529411764705882
0.3618205487728119 122.07601165771484 -0.5037030577659607 0.027450980392156862
0.5759762525558472 122.43001556396484 -0.5054755210876465 0.06666666666666667
0.8192152976989746 122.8321533203125 -0.5066332817077637 0.03529411764705882
1.0322611331939697 123.18692779541016 -0.46909070014953613 0.03137254901960784
1.6101783514022827 124.14598083496094 -0.41738736629486084 0.011764705882352941
20.073169708251953 155.13189697265625 6.460098743438721 0.30196078431372547
1.9461331367492676 124.70418548583984 -0.3769449293613434 0.054901960784313725
20.0474910736084 155.15853881835938 7.502070426940918 0.15294117647058825
20.035537719726562 155.2091064453125 8.562799453735352 0.22745098039215686
-0.7913851737976074 120.15299224853516 -0.43434765934944153 0.01568627450980392
1.6843353509902954 124.25883483886719 0.16035425662994385 0.12156862745098039
-0.670304000377655 120.35015106201172 -0.4603821337223053 0.00784313725490196
1.6666160821914673 124.24324035644531 0.3643719255924225 0.0784313725490196
-0.5667068362236023 120.5205078125 -0.45747849345207214 0.00784313725490196
1.6069715023040771 124.1594009399414 0.5779129862785339 0.023529411764705882
-0.4482951760292053 120.71477508544922 -0.4609059989452362 0.03529411764705882
1.66527259349823 124.26705932617188 0.7576449513435364 0.050980392156862744
-0.31647029519081116 120.93096160888672 -0.4661262035369873 0.023529411764705882
3.6607117652893066 127.53092956542969 0.550255298614502 0.00784313725490196
-0.16659390926361084 121.17639923095703 -0.4773091673851013 0.03137254901960784
3.6640937328338623 127.55518341064453 0.8327366709709167 0.027450980392156862
-0.010778837837278843 121.43212127685547 -0.48050007224082947 0.0392156862745098
4.953641891479492 129.6826171875 0.9731341600418091 1.0
0.17160896956920624 121.73102569580078 -0.4906471073627472 0.023529411764705882
0.3756726384162903 122.06543731689453 -0.5023572444915771 0.027450980392156862
0.5878881216049194 122.41403198242188 -0.502012312412262 0.06274509803921569
0.8362928032875061 122.82178497314453 -0.5059468150138855 0.03137254901960784
1.0443406105041504 123.16625213623047 -0.46465247869491577 0.027450980392156862
1.1503230333328247 123.34806060791016 -0.34791046380996704 0.027450980392156862
1.6321519613265991 124.13490295410156 -0.417074054479599 0.011764705882352941
20.07076644897461 154.87510681152344 6.44147253036499 0.14901960784313725
1.9666889905929565 124.68717956542969 -0.3750680088996887 0.054901960784313725
20.04343032836914 154.8988037109375 7.477817535400391 0.15294117647058825
2.3754732608795166 125.36122131347656 -0.33584830164909363 0.023529411764705882
20.028955459594727 154.94482421875 8.532413482666016 0.22745098039215686
-0.7757083773612976 120.1552505493164 -0.440411239862442 1.0
1.7059571743011475 124.24102783203125 0.16209788620471954 0.10980392156862745
-0.6871529221534729 120.30039978027344 -0.42875292897224426 0.011764705882352941
1.6798274517059326 124.21208190917969 0.368801087141037 0.06666666666666667
-0.533778965473175 120.54706573486328 -0.4800117015838623 0.00784313725490196
1.6375696659088135 124.15692138671875 0.5767423510551453 0.023529411764705882
-0.44095444679260254 120.70001220703125 -0.45562177896499634 0.01568627450980392
1.6711421012878418 124.22396087646484 0.7629422545433044 0.047058823529411764
-0.30464181303977966 120.92164611816406 -0.46469154953956604 0.03529411764705882
1.6960978507995605 124.27711486816406 0.9517495036125183 0.011764705882352941
-0.1558924913406372 121.16353607177734 -0.474129855632782 0.027450980392156862
3.6766016483306885 127.49848175048828 0.8375570178031921 0.027450980392156862
0.005615642759948969 121.42636108398438 -0.48158571124076843 0.0392156862745098
4.987821578979492 129.64535522460938 0.9756272435188293 1.0
0.18802791833877563 121.72314453125 -0.4908153712749481 0.03137254901960784
14.316822052001953 144.8360137939453 0.6900525689125061 0.047058823529411764
0.3912248909473419 122.05376434326172 -0.5009396076202393 0.027450980392156862
0.6065840125083923 122.40480041503906 -0.5020031332969666 0.06274509803921569
0.859363853931427 122.81653594970703 -0.5078253746032715 0.03529411764705882
1.058444619178772 123.14425659179688 -0.4601284861564636 0.027450980392156862
1.1588635444641113 123.3158950805664 -0.3401861786842346 0.023529411764705882
1.6586015224456787 124.12552642822266 -0.4177161753177643 0.011764705882352941
20.073801040649414 154.60052490234375 6.422088623046875 0.1450980392156863
1.9620510339736938 124.62406158447266 -0.36001431941986084 0.07450980392156863
20.056133270263672 154.6399688720703 7.455329895019531 0.15294117647058825
2.4028947353363037 125.3444595336914 -0.3347403109073639 0.027450980392156862
20.034982681274414 154.6746826171875 8.502820014953613 0.22745098039215686
-0.7609107494354248 120.15602111816406 -0.4453919529914856 0.011764705882352941
1.7243808507919312 124.21817016601562 0.1650225967168808 0.13333333333333333
-0.6606743931770325 120.31819915771484 -0.4459896385669708 0.00784313725490196
1.6949701309204102 124.18425750732422 0.3725343346595764 0.06666666666666667
-0.5513988137245178 120.49486541748047 -0.448557049036026 0.011764705882352941
1.6556202173233032 124.13420104980469 0.5791961550712585 0.023529411764705882
-0.4089725911617279 120.72359466552734 -0.4752751886844635 0.00784313725490196
1.6757222414016724 124.17920684814453 0.7684902548789978 0.043137254901960784
-0.29573237895965576 120.90782165527344 -0.46050193905830383 0.01568627450980392
-0.14233751595020294 121.15519714355469 -0.47357916831970215 0.027450980392156862
1.720388412475586 124.27645111083984 1.1470781564712524 0.011764705882352941
0.02004147134721279 121.41748046875 -0.4809996485710144 0.03529411764705882
5.020784378051758 129.60630798339844 0.978239119052887 1.0
0.20145973563194275 121.71056365966797 -0.48860597610473633 0.023529411764705882
14.355875015258789 144.69461059570312 0.6972757577896118 0.047058823529411764
0.4087262749671936 122.045166015625 -0.5010180473327637 0.027450980392156862
0.6252543926239014 122.39550018310547 -0.5019910931587219 0.058823529411764705
0.8773819804191589 122.80323028564453 -0.5063904523849487 0.03529411764705882
1.067352294921875 123.11420440673828 -0.4525153338909149 0.023529411764705882
1.1764461994171143 123.29832458496094 -0.3376263380050659 0.0196078431372549
1.6881235837936401 124.12094116210938 -0.41993942856788635 0.011764705882352941
20.110614776611328 154.38400268554688 6.409765243530273 0.29411764705882354
1.8049956560134888 124.3197021484375 -0.2738589346408844 0.07450980392156863
20.08808708190918 154.41531372070312 7.437906265258789 0.30196078431372547
1.7842339277267456 124.3001480102539 -0.060814157128334045 0.011764705882352941
20.0384521484375 154.40321350097656 8.472888946533203 0.23137254901960785
-0.7466225624084473 120.15706634521484 -0.4503912329673767 0.023529411764705882
1.742514729499817 124.19770050048828 0.16750505566596985 0.12156862745098039
-0.6542173027992249 120.30615234375 -0.4414164125919342 0.00784313725490196
1.7024455070495605 124.14717864990234 0.3782997727394104 0.054901960784313725
-0.5387654304504395 120.49110412597656 -0.450116902589798 0.00784313725490196
1.6776195764541626 124.12055969238281 0.580094575881958 0.0196078431372549
-0.4185260832309723 120.68408966064453 -0.45371052622795105 0.011764705882352941
1.6915003061294556 124.1554183959961 0.7709233164787292 0.043137254901960784
-0.2576152980327606 120.94062805175781 -0.48478710651397705 0.00784313725490196
-0.12951909005641937 121.14724731445312 -0.4730556905269623 0.0196078431372549
1.7332265377044678 124.24738311767578 1.1494559049606323 0.027450980392156862
0.03368307650089264 121.40901947021484 -0.4804425537586212 0.03529411764705882
5.0545878410339355 129.57359313964844 0.9804161190986633 1.0
0.21602141857147217 121.7015380859375 -0.48801127076148987 0.027450980392156862
5.71951150894165 130.6615447998047 1.2758194208145142 0.011764705882352941
0.4243389070034027 122.03548431396484 -0.5003804564476013 0.027450980392156862
0.6460036039352417 122.39144134521484 -0.5041308999061584 0.058823529411764705
0.8974053859710693 122.79524993896484 -0.5069790482521057 0.03529411764705882
1.0811930894851685 123.09442901611328 -0.4486529529094696 0.023529411764705882
1.196992039680481 123.28783416748047 -0.33740267157554626 0.0196078431372549
1.7040245532989502 124.09746551513672 -0.4158661663532257 0.011764705882352941
20.09598159790039 154.1005096435547 6.388383865356445 0.1450980392156863
1.8204282522201538 124.29414367675781 -0.2695468068122864 0.0784313725490196
20.091611862182617 154.16104125976562 7.415096759796143 0.14901960784313725
1.7807525396347046 124.24490356445312 -0.04893060028553009 0.050980392156862744
20.055767059326172 154.1714630126953 8.448990821838379 0.23137254901960785
-0.7415682077407837 120.14398956298828 -0.444599986076355 0.03137254901960784
1.7647713422775269 124.18379974365234 0.16841861605644226 0.10980392156862745
-0.6393778920173645 120.30695343017578 -0.44619542360305786 0.01568627450980392
1.7223995923995972 124.13007354736328 0.37989911437034607 0.054901960784313725
-0.5251867175102234 120.48875427246094 -0.45267409086227417 0.011764705882352941
1.697454810142517 124.103515625 0.5815977454185486 0.023529411764705882
-0.40334898233413696 120.68289184570312 -0.4570801556110382 0.011764705882352941
1.7103511095046997 124.13663482666016 0.7725920081138611 0.047058823529411764
-0.26682332158088684 120.9002914428711 -0.46410444378852844 0.01568627450980392
1.7590590715408325 124.22637939453125 0.9555807113647461 0.06666666666666667
-0.1118260994553566 121.14679718017578 -0.47691068053245544 0.011764705882352941
1.7448575496673584 124.21661376953125 1.1519948244094849 0.03529411764705882
0.05026501417160034 121.40509796142578 -0.48238605260849 0.03137254901960784
5.098890781402588 129.5576934814453 0.981437087059021 1.0
0.23354803025722504 121.69709014892578 -0.4897889196872711 0.023529411764705882
0.44193190336227417 122.02886962890625 -0.5012379884719849 0.027450980392156862
0.6677719354629517 122.38888549804688 -0.5069720149040222 0.058823529411764705
0.916388988494873 122.7856216430664 -0.5069032311439514 0.03529411764705882
1.0939146280288696 123.07303619384766 -0.4441729784011841 0.023529411764705882
1.2144038677215576 123.27244567871094 -0.3354567289352417 0.0196078431372549
1.7343730926513672 124.0967025756836 -0.4191875457763672 0.011764705882352941
20.100786209106445 153.85130310058594 6.371146202087402 0.2901960784313726
1.8973796367645264 124.36505889892578 -0.2937508821487427 0.17254901960784313
20.097942352294922 153.91387939453125 7.393277168273926 0.14901960784313725
1.792698860168457 124.21443939208984 -0.0436280183494091 0.0392156862745098
20.057268142700195 153.9164581298828 8.420843124389648 0.23137254901960785
-0.7319250106811523 120.13792419433594 -0.44420212507247925 0.03137254901960784
1.796510934829712 124.1846923828125 0.16580495238304138 0.10980392156862745
-0.6216832399368286 120.31197357177734 -0.45408758521080017 0.0196078431372549
1.7412307262420654 124.11125183105469 0.3818472921848297 0.054901960784313725
-0.49728941917419434 120.50804138183594 -0.47021347284317017 0.027450980392156862
1.7214841842651367 124.09307098388672 0.5818997621536255 0.023529411764705882
-0.38911980390548706 120.68016052246094 -0.459488183259964 0.011764705882352941
1.7333935499191284 124.1244888305664 0.7732442617416382 0.054901960784313725
-0.2509045898914337 120.898681640625 -0.46727776527404785 0.011764705882352941
1.788763165473938 124.2241439819336 0.9550385475158691 0.12156862745098039
-0.10691646486520767 121.12671661376953 -0.46937644481658936 0.023529411764705882
1.7638224363327026 124.19762420654297 1.1533963680267334 0.047058823529411764
0.0708300843834877 121.40718841552734 -0.48766183853149414 0.01568627450980392
5.122866153717041 129.5095977783203 0.9846628904342651 1.0
0.2490701973438263 121.68949127197266 -0.4899809658527374 0.011764705882352941
0.4574925899505615 122.01908111572266 -0.5005959868431091 0.023529411764705882
