23.9014949798584 153.19073486328125 8.704778671264648 0.10980392156862745
3.738128423690796 125.6733169555664 -0.254621297121048 0.0392156862745098
3.740394353866577 125.69226837158203 -0.00362780480645597 0.047058823529411764
-0.2022448629140854 120.44148254394531 -0.4656057357788086 0.0
3.7354860305786133 125.70175170898438 0.24789105355739594 0.043137254901960784
-0.09289596974849701 120.5877685546875 -0.4424472749233246 0.03137254901960784
3.717470407485962 125.69407653808594 0.5024916529655457 0.00784313725490196
0.06213078647851944 120.79267120361328 -0.44879814982414246 0.03529411764705882
3.723491907119751 125.71770477294922 0.7488244771957397 0.07450980392156863
0.23476645350456238 121.02069854736328 -0.4582710862159729 0.0392156862745098
6.319334506988525 129.1492462158203 0.6504608988761902 0.011764705882352941
0.4288525879383087 121.2769546508789 -0.47063273191452026 0.08235294117647059
6.342449188232422 129.201904296875 0.9972357153892517 1.0
0.636979341506958 121.55217742919922 -0.47700250148773193 0.023529411764705882
0.878132164478302 121.8707046508789 -0.4903550148010254 0.027450980392156862
17.457183837890625 143.95346069335938 1.497079849243164 0.20392156862745098
1.1207740306854248 122.19229888916016 -0.48635366559028625 0.07450980392156863
1.419170618057251 122.58695220947266 -0.4946913719177246 0.03529411764705882
1.4496184587478638 122.63709259033203 -0.3401910066604614 0.023529411764705882
1.7182101011276245 122.99526977539062 -0.30132856965065 0.01568627450980392
2.285579204559326 123.74200439453125 -0.3746044635772705 0.0392156862745098
24.186824798583984 153.19094848632812 6.612342357635498 0.15294117647058825
2.6838667392730713 124.2718734741211 -0.33689212799072266 0.0392156862745098
3.1825554370880127 124.93426513671875 -0.3061843812465668 0.027450980392156862
24.067598342895508 153.16717529296875 8.722851753234863 0.10980392156862745
3.751286745071411 125.63874053955078 -0.24950967729091644 0.058823529411764705
3.7463197708129883 125.64823913574219 0.003096418222412467 0.054901960784313725
-2.307469606399536 117.7745132446289 1.4891903400421143 1.0
3.743762969970703 125.66075134277344 0.2532845735549927 0.043137254901960784
-0.08059297502040863 120.58285522460938 -0.4438736140727997 0.03137254901960784
3.726860523223877 125.65460968017578 0.5069815516471863 1.0
0.0717545747756958 120.78314971923828 -0.44736695289611816 0.03529411764705882
3.730471611022949 125.67498779296875 0.7531298995018005 0.07450980392156863
0.25062960386276245 121.01770782470703 -0.4612182378768921 0.03529411764705882
6.37642765045166 129.15101623535156 0.649274468421936 0.011764705882352941
0.4421422779560089 121.2691650390625 -0.4708796739578247 0.0784313725490196
6.3923869132995605 129.1941375732422 0.9975754618644714 0.00784313725490196
0.6499589681625366 121.54235076904297 -0.47637808322906494 0.023529411764705882
0.8920561075210571 121.86015319824219 -0.48968514800071716 0.027450980392156862
17.57369613647461 143.94297790527344 1.5002319812774658 0.13725490196078433
1.1391115188598633 122.18545532226562 -0.4877471625804901 0.07058823529411765
1.43289053440094 122.57182312011719 -0.4926010072231293 0.0392156862745098
1.4669584035873413 122.6263427734375 -0.3400282561779022 0.03529411764705882
1.7389652729034424 122.98676300048828 -0.3022127151489258 0.01568627450980392
2.3073909282684326 123.7303237915039 -0.37472090125083923 0.0392156862745098
24.354618072509766 153.19358825683594 6.628411769866943 0.15294117647058825
2.707252264022827 124.259033203125 -0.3368435800075531 0.043137254901960784
3.2031309604644775 124.91378021240234 -0.3042077124118805 0.027450980392156862
24.24160385131836 153.17921447753906 8.745527267456055 0.10980392156862745
3.7684364318847656 125.60346984863281 -0.24464711546897888 0.054901960784313725
3.7585947513580322 125.60667419433594 0.00892550591379404 0.054901960784313725
-2.299283027648926 117.7813491821289 1.483290433883667 1.0
3.755997657775879 125.61910247802734 0.25851842761039734 0.047058823529411764
-0.0638183131814003 120.58110809326172 -0.44810980558395386 0.0196078431372549
3.739000082015991 125.61292266845703 0.5116106867790222 1.0
0.09146914631128311 120.78377532958984 -0.4531945288181305 0.050980392156862744
3.735323905944824 125.6237564086914 0.7583982944488525 0.07058823529411765
0.2588852047920227 121.00237274169922 -0.45710766315460205 0.0392156862745098
6.4414191246032715 129.15411376953125 0.6478224396705627 0.011764705882352941
0.45344892144203186 121.25597381591797 -0.468560129404068 0.06666666666666667
6.453824043273926 129.19248962402344 0.9974466562271118 0.00784313725490196
0.6689932942390442 121.53707885742188 -0.4788340926170349 0.023529411764705882
0.9179324507713318 121.8614273071289 -0.4956493377685547 0.03137254901960784
17.711776733398438 143.94081115722656 1.5036522150039673 0.13725490196078433
1.1580305099487305 122.17573547363281 -0.4883503019809723 0.07450980392156863
1.4507701396942139 122.55818939208984 -0.4917364716529846 0.0392156862745098
1.4838182926177979 122.61109924316406 -0.33854129910469055 0.03529411764705882
1.7546396255493164 122.96758270263672 -0.29957127571105957 0.0196078431372549
2.3267061710357666 123.71074676513672 -0.3726206123828888 0.0392156862745098
24.56514549255371 153.22564697265625 6.650411128997803 0.1568627450980392
2.7318811416625977 124.2426986694336 -0.3361915051937103 0.043137254901960784
3.2299251556396484 124.89581298828125 -0.30340588092803955 0.027450980392156862
24.434268951416016 153.1889190673828 8.770362854003906 0.10980392156862745
3.780082941055298 125.56733703613281 -0.23914794623851776 0.054901960784313725
3.770172357559204 125.57048034667969 0.013921503908932209 0.047058823529411764
-2.2944908142089844 117.78422546386719 1.4803746938705444 1.0
3.7663238048553467 125.58126831054688 0.26330921053886414 0.043137254901960784
-0.05591714009642601 120.57061767578125 -0.44570621848106384 0.01568627450980392
3.7382802963256836 125.56095886230469 0.518111526966095 1.0
0.0977218747138977 120.77001190185547 -0.4490143656730652 0.03137254901960784
3.7479779720306396 125.58897399902344 0.7616655826568604 0.07058823529411765
0.27136000990867615 120.99506378173828 -0.4574296474456787 0.03529411764705882
6.513362407684326 129.17430114746094 0.6447460651397705 0.00784313725490196
0.46782177686691284 121.24952697753906 -0.4696349501609802 0.054901960784313725
6.506302833557129 129.18746948242188 0.9975823760032654 0.00784313725490196
0.6796398758888245 121.52427673339844 -0.4766277074813843 0.027450980392156862
0.928368330001831 121.84639739990234 -0.4927361309528351 0.03137254901960784
17.844436645507812 143.94993591308594 1.506592035293579 0.13725490196078433
1.1670418977737427 122.15702819824219 -0.48411640524864197 0.06666666666666667
1.465559720993042 122.54446411132812 -0.49030187726020813 0.0392156862745098
1.5010932683944702 122.6002426147461 -0.33837369084358215 0.0392156862745098
1.7729707956314087 122.9559326171875 -0.29930832982063293 0.01568627450980392
2.347254991531372 123.69741821289062 -0.37220534682273865 0.043137254901960784
24.754077911376953 153.25363159179688 6.670164585113525 0.1568627450980392
2.7516067028045654 124.22511291503906 -0.33469364047050476 0.043137254901960784
3.2563893795013428 124.88288116455078 -0.30360135436058044 0.03137254901960784
24.590970993041992 153.17581176757812 8.788558959960938 0.10980392156862745
3.7918097972869873 125.5285415649414 -0.23319034278392792 0.050980392156862744
3.7806057929992676 125.53005981445312 0.01967446133494377 0.050980392156862744
-2.30924654006958 117.76277160644531 1.4954012632369995 1.0
3.78037166595459 125.5454330444336 0.26757240295410156 0.0392156862745098
-0.031997401267290115 120.57877349853516 -0.45665737986564636 0.01568627450980392
3.7473084926605225 125.5188980102539 0.522913932800293 1.0
0.11012512445449829 120.76268005371094 -0.44937798380851746 0.03137254901960784
3.7643771171569824 125.55620574951172 0.7645909190177917 0.07450980392156863
0.2822243869304657 120.9843978881836 -0.4559703767299652 0.047058823529411764
6.583909511566162 129.18783569335938 0.6422684788703918 0.00784313725490196
0.4749172031879425 121.23255920410156 -0.46485358476638794 0.050980392156862744
6.565813064575195 129.18692016601562 0.9973790049552917 0.00784313725490196
0.6944441795349121 121.51516723632812 -0.476749449968338 0.023529411764705882
0.9395571351051331 121.83072662353516 -0.48978275060653687 0.027450980392156862
17.97829246520996 143.95016479492188 1.5098494291305542 0.1411764705882353
1.1873528957366943 122.15080261230469 -0.4861621856689453 0.07058823529411765
1.4824126958847046 122.53144836425781 -0.4894786477088928 0.0392156862745098
1.5133600234985352 122.5811538696289 -0.3350849747657776 0.0392156862745098
1.7958489656448364 122.94795227050781 -0.3007044792175293 0.01568627450980392
2.361712694168091 123.67405700683594 -0.368580162525177 0.043137254901960784
24.916919708251953 153.23341369628906 6.68454122543335 0.1568627450980392
2.7749061584472656 124.20957946777344 -0.33409497141838074 0.043137254901960784
3.282958984375 124.86730194091797 -0.30329224467277527 0.03137254901960784
24.779232025146484 153.19027709960938 8.813482284545898 0.10980392156862745
3.8109002113342285 125.49630737304688 -0.22910954058170319 0.054901960784313725
3.793520212173462 125.49007415771484 0.025152383372187614 0.054901960784313725
-2.3130860328674316 117.75477600097656 1.5004632472991943 1.0
3.7920334339141846 125.5038070678711 0.2727991044521332 0.043137254901960784
-0.03846728801727295 120.54821014404297 -0.4408111274242401 0.011764705882352941
3.7710859775543213 125.49287414550781 0.5250171422958374 0.00784313725490196
0.11865010112524033 120.74929809570312 -0.4460507035255432 0.023529411764705882
3.7759346961975098 125.51446533203125 0.7686145305633545 0.08235294117647059
0.297115683555603 120.97738647460938 -0.4570966362953186 0.050980392156862744
6.63702917098999 129.17431640625 0.6424601078033447 0.011764705882352941
0.49179667234420776 121.22634887695312 -0.4666863679885864 0.050980392156862744
6.629961013793945 129.18763732910156 0.997066855430603 0.01568627450980392
0.7099822163581848 121.50541687011719 -0.4768312871456146 0.023529411764705882
0.9608072638511658 121.82595825195312 -0.4927521347999573 0.03137254901960784
18.140396118164062 143.9761199951172 1.5129891633987427 0.1411764705882353
1.203840732574463 122.13798522949219 -0.4853525161743164 0.07058823529411765
1.4989783763885498 122.51617431640625 -0.48794907331466675 0.0392156862745098
1.5336251258850098 122.57022094726562 -0.33543509244918823 0.0392156862745098
1.8125499486923218 122.93011474609375 -0.29862701892852783 0.0196078431372549
25.09830093383789 153.223388671875 6.701383113861084 0.1568627450980392
2.8042221069335938 124.19908142089844 -0.33535248041152954 0.043137254901960784
3.3132572174072266 124.8536376953125 -0.30378246307373047 0.027450980392156862
24.971649169921875 153.19590759277344 8.83814811706543 0.10980392156862745
3.8210582733154297 125.45597839355469 -0.22276614606380463 0.054901960784313725
3.8072500228881836 125.45431518554688 0.029869921505451202 0.054901960784313725
3.8069655895233154 125.46951293945312 0.27676141262054443 0.047058823529411764
-0.032333213835954666 120.53448486328125 -0.43646615743637085 0.011764705882352941
3.7809903621673584 125.4523696899414 0.5295642614364624 0.00784313725490196
0.13437572121620178 120.74601745605469 -0.4491537809371948 0.027450980392156862
3.789548397064209 125.47854614257812 0.7719483375549316 0.07450980392156863
0.3113287091255188 120.97083282470703 -0.45825284719467163 0.043137254901960784
6.711559295654297 129.19192504882812 0.6395382881164551 0.00784313725490196
0.510259211063385 121.22344970703125 -0.4702124297618866 0.054901960784313725
6.695837497711182 129.19439697265625 0.9963300228118896 0.011764705882352941
0.7258955836296082 121.49762725830078 -0.47773638367652893 0.027450980392156862
0.9800841212272644 121.82029724121094 -0.4950120151042938 0.03137254901960784
18.288341522216797 143.99240112304688 1.516098141670227 0.1411764705882353
1.2182412147521973 122.12433624267578 -0.4838813543319702 0.07058823529411765
1.5157427787780762 122.50305938720703 -0.48712149262428284 0.047058823529411764
1.5517284870147705 122.5584716796875 -0.3352145850658417 0.0392156862745098
1.830581545829773 122.91600036621094 -0.29773688316345215 0.0196078431372549
25.300548553466797 153.25198364257812 6.722635746002197 0.1568627450980392
2.828662872314453 124.18488311767578 -0.3352257311344147 0.043137254901960784
3.3373167514801025 124.83480834960938 -0.30259475111961365 0.027450980392156862
25.14728355407715 153.19149780273438 8.859808921813965 0.10980392156862745
3.836146354675293 125.41911315917969 -0.2175203263759613 0.054901960784313725
3.8284144401550293 125.42510223388672 0.032941583544015884 0.054901960784313725
3.820708751678467 125.43099212646484 0.2813887596130371 0.047058823529411764
-0.022320516407489777 120.52436065673828 -0.43495848774909973 0.00784313725490196
3.794607400894165 125.41385650634766 0.533677339553833 0.00784313725490196
0.14733979105949402 120.73807525634766 -0.4494803249835968 0.027450980392156862
3.8031907081604004 125.43994140625 0.7755569219589233 0.08235294117647059
0.3227638006210327 120.95953369140625 -0.4567558467388153 0.043137254901960784
6.777210235595703 129.19351196289062 0.6381688714027405 0.00784313725490196
0.521367609500885 121.21006774902344 -0.4678856432437897 0.07058823529411765
6.761448860168457 129.1960906982422 0.9959372878074646 0.011764705882352941
0.7402189373970032 121.48634338378906 -0.4770255386829376 0.023529411764705882
0.9943041801452637 121.80673217773438 -0.4935031533241272 0.03137254901960784
18.468549728393555 144.03883361816406 1.5190486907958984 0.1450980392156863
1.2381867170333862 122.11577606201172 -0.48517295718193054 0.07058823529411765
1.5393494367599487 122.4964828491211 -0.4895341992378235 0.08235294117647059
1.5707358121871948 122.54591369628906 -0.3349445164203644 0.0392156862745098
1.8495663404464722 122.90104675292969 -0.29679468274116516 0.01568627450980392
2.183582305908203 123.32583618164062 -0.26107823848724365 0.06666666666666667
25.462860107421875 153.21524047851562 6.736161231994629 0.1568627450980392
2.8518505096435547 124.16661834716797 -0.3340749740600586 0.0392156862745098
3.3626482486724854 124.81484985351562 -0.3013375699520111 0.03137254901960784
25.332998275756836 153.18609619140625 8.882735252380371 0.10980392156862745
3.850863218307495 125.3849105834961 -0.21273589134216309 0.058823529411764705
3.841838836669922 125.3893051147461 0.03765751048922539 0.050980392156862744
3.8316009044647217 125.3920669555664 0.28623971343040466 0.047058823529411764
-0.011806495487689972 120.51602172851562 -0.4344339370727539 0.011764705882352941
3.809103012084961 125.37957000732422 0.5372158885002136 0.00784313725490196
0.15511958301067352 120.72509002685547 -0.4461808502674103 0.027450980392156862
3.817713737487793 125.40557098388672 0.7786827087402344 0.08235294117647059
0.33464494347572327 120.95011138916016 -0.45616307854652405 0.043137254901960784
6.84836483001709 129.20578002929688 0.6357603669166565 0.00784313725490196
0.5363515019416809 121.20282745361328 -0.4689141809940338 0.0784313725490196
6.827583312988281 129.20225524902344 0.9952329993247986 0.011764705882352941
0.7525851726531982 121.47418975830078 -0.4755624830722809 0.027450980392156862
1.011202335357666 121.7980728149414 -0.4942673444747925 0.03137254901960784
18.63839340209961 144.08026123046875 1.5219115018844604 0.07058823529411765
1.2560703754425049 122.10637664794922 -0.4858020544052124 0.07058823529411765
1.5548557043075562 122.48177337646484 -0.48804357647895813 0.08235294117647059
1.5887725353240967 122.53404235839844 -0.3347182273864746 0.0392156862745098
1.8711389303207397 122.89128112792969 -0.29760733246803284 0.0196078431372549
2.197977304458618 123.3045654296875 -0.2580200433731079 0.07450980392156863
25.66705322265625 153.24366760253906 6.757720947265625 0.1607843137254902
2.874985694885254 124.15074920654297 -0.3334612250328064 0.0392156862745098
3.3902721405029297 124.80042266845703 -0.30144619941711426 0.03529411764705882
25.53842544555664 153.21742248535156 8.911808967590332 0.10588235294117647
3.867723226547241 125.35639953613281 -0.2091885805130005 0.054901960784313725
3.8561666011810303 125.35770416259766 0.04161521792411804 0.054901960784313725
3.8483641147613525 125.36351013183594 0.28923606872558594 0.043137254901960784
-0.006407744251191616 120.50272369384766 -0.4301176071166992 0.00784313725490196
3.823282241821289 125.34794616699219 0.5404317378997803 0.00784313725490196
0.17248517274856567 120.72489166259766 -0.45113450288772583 0.027450980392156862
3.831918716430664 125.3738784790039 0.7815319895744324 0.08235294117647059
0.34238678216934204 120.93701934814453 -0.4529854953289032 0.047058823529411764
6.908850193023682 129.20852661132812 0.6343732476234436 0.00784313725490196
0.5482971668243408 121.19329833984375 -0.4683152437210083 0.050980392156862744
6.889267444610596 129.20668029785156 0.9946635961532593 0.011764705882352941
0.7700268626213074 121.46968078613281 -0.4780726432800293 0.0196078431372549
1.026096224784851 121.78855895996094 -0.49432432651519775 0.03137254901960784
1.2695013284683228 122.09326171875 -0.484367698431015 0.07058823529411765
1.5705896615982056 122.4692153930664 -0.48725467920303345 0.08235294117647059
1.6070556640625 122.52432250976562 -0.3351493775844574 0.0392156862745098
1.8868414163589478 122.87629699707031 -0.2961900234222412 0.01568627450980392
2.2161123752593994 123.29009246826172 -0.25711071491241455 0.07450980392156863
25.833341598510742 153.23562622070312 6.773473262786865 0.1607843137254902
2.896864891052246 124.13577270507812 -0.3329048752784729 0.043137254901960784
3.412842035293579 124.78240966796875 -0.3003145456314087 0.027450980392156862
25.719743728637695 153.22950744628906 8.936039924621582 0.10588235294117647
3.8887252807617188 125.32442474365234 -0.20542597770690918 0.058823529411764705
3.8733649253845215 125.3211441040039 0.04612948000431061 0.054901960784313725
3.8692615032196045 125.33149719238281 0.2924470901489258 0.043137254901960784
0.015385076403617859 120.50550079345703 -0.438124418258667 0.00784313725490196
3.8428127765655518 125.31444549560547 0.5436103343963623 0.00784313725490196
0.17914433777332306 120.7081298828125 -0.4459439516067505 0.03529411764705882
3.8502297401428223 125.33875274658203 0.7845945954322815 0.10196078431372549
0.3578198254108429 120.92924499511719 -0.4540680944919586 0.047058823529411764
6.9819793701171875 129.21371459960938 0.6325260996818542 0.00784313725490196
0.5599778890609741 121.17924499511719 -0.4659492075443268 0.050980392156862744
6.959827423095703 129.2089080810547 0.9942014813423157 0.011764705882352941
0.7861836552619934 121.45906066894531 -0.47810468077659607 0.01568627450980392
1.0350614786148071 121.76707458496094 -0.4890475869178772 0.027450980392156862
1.2854548692703247 122.07804107666016 -0.48280230164527893 0.07058823529411765
1.5878437757492065 122.45293426513672 -0.4856668710708618 0.08627450980392157
1.6281076669692993 122.51229858398438 -0.33543661236763 0.0392156862745098
1.9066848754882812 122.8603515625 -0.29518982768058777 0.0196078431372549
2.2349345684051514 123.27001953125 -0.2549905776977539 0.08235294117647059
26.038333892822266 153.23675537109375 6.793621063232422 0.1607843137254902
2.9247987270355225 124.12080383300781 -0.33311983942985535 0.043137254901960784
3.441798448562622 124.76415252685547 -0.29984721541404724 0.03137254901960784
25.932275772094727 153.24130249023438 8.964309692382812 0.10588235294117647
3.90035343170166 125.289794921875 -0.2003268003463745 0.058823529411764705
3.88991379737854 125.29255676269531 0.049401313066482544 0.054901960784313725
3.88578462600708 125.3028793334961 0.2954440712928772 0.043137254901960784
-2.322016954421997 117.7271499633789 1.5342270135879517 0.011764705882352941
3.8592324256896973 125.28585052490234 0.5463250875473022 0.00784313725490196
0.18847347795963287 120.69829559326172 -0.444499671459198 0.043137254901960784
3.864154577255249 125.30702209472656 0.787442684173584 0.09019607843137255
0.3701132833957672 120.92161560058594 -0.454375296831131 0.047058823529411764
7.038907527923584 129.21127319335938 0.6316424012184143 0.00784313725490196
0.5741961002349854 121.17243194580078 -0.467006653547287 0.050980392156862744
7.016695976257324 129.2065887451172 0.9941072463989258 0.011764705882352941
0.802435576915741 121.45301055908203 -0.4798215925693512 0.0196078431372549
1.0510642528533936 121.75890350341797 -0.48984554409980774 0.027450980392156862
1.303597092628479 122.07059478759766 -0.48416799306869507 0.06666666666666667
19.788084030151367 145.037109375 2.3558738231658936 0.08235294117647059
1.604702353477478 122.44173431396484 -0.4855310618877411 0.08627450980392157
1.6451274156570435 122.50098419189453 -0.33524882793426514 0.0392156862745098
1.9259614944458008 122.84970092773438 -0.2954743206501007 0.0196078431372549
2.2554314136505127 123.25841522216797 -0.2551240622997284 0.08235294117647059
26.227510452270508 153.25511169433594 6.8133015632629395 0.1607843137254902
2.9453611373901367 124.10417938232422 -0.33207789063453674 0.0392156862745098
3.4667470455169678 124.7490005493164 -0.29957592487335205 0.03137254901960784
26.101909637451172 153.23629760742188 8.985568046569824 0.10588235294117647
3.918245792388916 125.26005554199219 -0.1967078149318695 0.058823529411764705
3.9064950942993164 125.26128387451172 0.05308724194765091 0.058823529411764705
3.9010777473449707 125.27003479003906 0.2991049885749817 0.043137254901960784
0.031129950657486916 120.48367309570312 -0.4332759380340576 1.0
3.8744118213653564 125.25303649902344 0.54961097240448 0.00784313725490196
0.2006867378950119 120.6906509399414 -0.44484955072402954 0.0392156862745098
3.8831405639648438 125.27874755859375 0.7897500395774841 0.09019607843137255
0.38420477509498596 120.91478729248047 -0.4555191099643707 0.043137254901960784
7.1081132888793945 129.21920776367188 0.6296173334121704 0.00784313725490196
0.5879213809967041 121.16360473632812 -0.46719691157341003 0.050980392156862744
7.087111473083496 129.21621704101562 0.9931333065032959 0.011764705882352941
0.811119019985199 121.43646240234375 -0.47599101066589355 0.0196078431372549
1.0738314390182495 121.75713348388672 -0.4943194091320038 0.03137254901960784
19.913301467895508 144.96115112304688 1.525327205657959 0.3333333333333333
1.3201696872711182 122.05952453613281 -0.48408588767051697 0.07058823529411765
1.617587685585022 122.42394256591797 -0.4827193319797516 0.09411764705882353
1.663041353225708 122.48885345458984 -0.33501145243644714 0.0392156862745098
1.9474292993545532 122.83964538574219 -0.29627373814582825 0.01568627450980392
2.2757201194763184 123.24439239501953 -0.2546771168708801 0.07450980392156863
26.41324806213379 153.25521850585938 6.831631183624268 0.1607843137254902
2.9695615768432617 124.08949279785156 -0.33192914724349976 0.047058823529411764
3.4917237758636475 124.73119354248047 -0.29880067706108093 0.03137254901960784
26.285385131835938 153.2347869873047 9.009018898010254 0.10588235294117647
3.939788579940796 125.23480224609375 -0.19425027072429657 0.058823529411764705
3.9216842651367188 125.22846984863281 0.057114433497190475 0.054901960784313725
3.9212870597839355 125.24325561523438 0.30158188939094543 0.043137254901960784
-2.2756361961364746 117.77548217773438 1.4981224536895752 0.00784313725490196
3.889449119567871 125.22019958496094 0.5528961420059204 0.00784313725490196
0.20940832793712616 120.67890930175781 -0.44245925545692444 0.0392156862745098
3.9007434844970703 125.2489013671875 0.7922617793083191 0.09019607843137255
0.39477604627609253 120.90380859375 -0.4540472626686096 0.047058823529411764
7.168572425842285 129.21607971191406 0.6287104487419128 0.00784313725490196
0.6051656007766724 121.15888977050781 -0.46987271308898926 0.050980392156862744
7.155140399932861 129.2224578857422 0.9923984408378601 0.011764705882352941
0.8244971632957458 121.42550659179688 -0.4753062427043915 0.027450980392156862
1.0846136808395386 121.74110412597656 -0.491352379322052 0.027450980392156862
1.3367116451263428 122.04840087890625 -0.4840015769004822 0.07058823529411765
1.6352803707122803 122.41189575195312 -0.4825325310230255 0.08627450980392157
1.6796952486038208 122.4752197265625 -0.3341590166091919 0.03529411764705882
1.9627068042755127 122.82217407226562 -0.2942292094230652 0.0196078431372549
2.2959699630737305 123.23030090332031 -0.2542271912097931 0.07450980392156863
26.59926414489746 153.25453186035156 6.850004196166992 0.16470588235294117
2.9899821281433105 124.07025909423828 -0.33034181594848633 0.043137254901960784
3.5216617584228516 124.71929931640625 -0.29975396394729614 0.03529411764705882
26.460416793823242 153.2217254638672 9.030365943908691 0.10588235294117647
3.9574546813964844 125.20498657226562 -0.19062955677509308 0.058823529411764705
3.9430654048919678 125.20318603515625 0.05943408980965614 0.058823529411764705
3.9426660537719727 125.21794891357422 0.3037647008895874 0.043137254901960784
0.042683616280555725 120.45598602294922 -0.4245813488960266 1.0
3.9208850860595703 125.2071533203125 0.5529398322105408 0.00784313725490196
0.2262183427810669 120.67658996582031 -0.44645553827285767 0.0392156862745098
3.922049045562744 125.22360229492188 0.7941644787788391 0.09019607843137255
0.4064832925796509 120.89415740966797 -0.4534448981285095 0.043137254901960784
7.224013328552246 129.20655822753906 0.6284458637237549 0.011764705882352941
0.6164896488189697 121.14720153808594 -0.4684002101421356 0.047058823529411764
7.2169318199157715 129.22068786621094 0.9922328591346741 0.011764705882352941
0.8414297103881836 121.418701171875 -0.47697821259498596 0.023529411764705882
1.096538782119751 121.7264633178711 -0.48912784457206726 0.027450980392156862
1.3520104885101318 122.0357894897461 -0.48321443796157837 0.0784313725490196
1.6529418230056763 122.3997802734375 -0.4823426902294159 0.09411764705882353
1.7012356519699097 122.46733093261719 -0.3357526659965515 0.0392156862745098
1.9841185808181763 122.81198120117188 -0.2950223386287689 0.0196078431372549
2.3161821365356445 123.21614837646484 -0.25377416610717773 0.07450980392156863
26.801965713500977 153.2729949951172 6.871211051940918 0.16470588235294117
3.0153491497039795 124.05690002441406 -0.33066365122795105 0.047058823529411764
3.5465590953826904 124.70130920410156 -0.2989705204963684 0.027450980392156862
26.66190528869629 153.2400360107422 9.058196067810059 0.10588235294117647
3.9789209365844727 125.1769790649414 -0.18770991265773773 0.058823529411764705
3.9657392501831055 125.17668914794922 0.06182776391506195 0.058823529411764705
3.9602413177490234 125.18537139892578 0.30720269680023193 0.047058823529411764
0.06739699840545654 120.462890625 -0.43546125292778015 1.0
3.937087297439575 125.17308044433594 0.5562987923622131 0.00784313725490196
0.2424861341714859 120.6723403930664 -0.4495040774345398 0.03529411764705882
3.9408085346221924 125.1925277709961 0.7967495322227478 0.08235294117647059
0.41998445987701416 120.88529205322266 -0.4536779522895813 0.043137254901960784
7.28541374206543 129.1996612548828 0.6278308629989624 0.011764705882352941
0.6284622550010681 121.13490295410156 -0.46689075231552124 0.050980392156862744
7.28473424911499 129.22152709960938 0.9918591976165771 0.011764705882352941
0.8530904650688171 121.40425109863281 -0.4746789038181305 0.027450980392156862
1.1176731586456299 121.72099304199219 -0.49206337332725525 0.03137254901960784
20.282718658447266 144.869140625 1.5375076532363892 0.08235294117647059
1.3681137561798096 122.02243041992188 -0.48238152265548706 0.07058823529411765
1.6677911281585693 122.38255310058594 -0.4801359474658966 0.09411764705882353
1.722452163696289 122.4571533203125 -0.3366827666759491 0.03529411764705882
2.0040018558502197 122.79798126220703 -0.29462581872940063 0.0196078431372549
2.334900140762329 123.19810485839844 -0.25221872329711914 0.08235294117647059
27.00748062133789 153.28074645996094 6.892146587371826 0.16470588235294117
3.039368152618408 124.03949737548828 -0.32996395230293274 0.047058823529411764
3.5714468955993652 124.68065643310547 -0.2976832091808319 0.027450980392156862
26.86119842529297 153.24160766601562 9.084248542785645 0.10588235294117647
3.998889446258545 125.15007781982422 -0.18486112356185913 0.058823529411764705
3.9843757152557373 125.1482925415039 0.06483296304941177 0.054901960784313725
3.9826865196228027 125.1614761352539 0.309093177318573 0.043137254901960784
0.09740598499774933 120.47676086425781 -0.4511306583881378 0.0
3.9594504833221436 125.14923095703125 0.5580925345420837 0.00784313725490196
0.2499547153711319 120.65914154052734 -0.44619712233543396 0.0392156862745098
3.961907148361206 125.1671371459961 0.7986550331115723 0.09019607843137255
0.43281593918800354 120.87692260742188 -0.4539426863193512 0.043137254901960784
7.349937915802002 129.20033264160156 0.6264956593513489 0.011764705882352941
0.6408953666687012 121.12451934814453 -0.46624425053596497 0.050980392156862744
7.3531389236450195 129.22683715820312 0.9911742210388184 0.027450980392156862
0.8711889386177063 121.39871978759766 -0.47713127732276917 0.023529411764705882
7.528295516967773 129.45790100097656 1.3447357416152954 1.0
1.1319470405578613 121.70906829833984 -0.4913211762905121 0.03137254901960784
20.452730178833008 144.89651489257812 1.5408895015716553 0.08235294117647059
1.3870042562484741 122.01397705078125 -0.4836890399456024 0.07450980392156863
1.6829028129577637 122.36746978759766 -0.47863057255744934 0.09411764705882353
1.7390086650848389 122.44332885742188 -0.33582186698913574 0.0392156862745098
2.0241174697875977 122.78617858886719 -0.2948443293571472 0.0196078431372549
2.355020761489868 123.18382263183594 -0.2517600953578949 0.08235294117647059
27.205875396728516 153.2912139892578 6.912594318389893 0.16470588235294117
3.065929651260376 124.02743530273438 -0.3307550549507141 0.047058823529411764
3.5949647426605225 124.66101837158203 -0.2964603304862976 0.03137254901960784
27.036989212036133 153.22610473632812 9.105724334716797 0.10588235294117647
4.026410102844238 125.13207244873047 -0.1843285858631134 0.058823529411764705
4.004175186157227 125.12135314941406 0.06749820709228516 0.054901960784313725
4.001192092895508 125.13300323486328 0.3118700087070465 0.043137254901960784
0.09963669627904892 120.45880889892578 -0.44391724467277527 0.0
3.9778642654418945 125.12079620361328 0.5606340169906616 0.00784313725490196
0.26206687092781067 120.65129089355469 -0.44653722643852234 0.03137254901960784
3.9841959476470947 125.14320373535156 0.8003595471382141 0.09019607843137255
0.44681161642074585 120.86986541748047 -0.45507580041885376 0.047058823529411764
7.467451095581055 129.26304626464844 0.6187686920166016 1.0
0.6544925570487976 121.11547088623047 -0.4664244055747986 0.050980392156862744
7.4177985191345215 129.22727966308594 0.9908347129821777 0.011764705882352941
0.8832390904426575 121.38618469238281 -0.47565287351608276 0.023529411764705882
7.598783016204834 129.4639434814453 1.3451513051986694 1.0
1.1449615955352783 121.69570922851562 -0.48983463644981384 0.03137254901960784
20.580564498901367 144.8726806640625 1.544872760772705 0.08235294117647059
1.4034215211868286 122.00262451171875 -0.48359450697898865 0.07450980392156863
1.7016741037368774 122.35663604736328 -0.4790895879268646 0.09411764705882353
1.756765365600586 122.43089294433594 -0.3355705440044403 0.0392156862745098
2.0416953563690186 122.77140045166016 -0.2939256429672241 0.0196078431372549
2.378880023956299 123.1738510131836 -0.25286510586738586 0.07450980392156863
27.41480827331543 153.31301879882812 6.934813022613525 0.16862745098039217
3.092468738555908 124.01527404785156 -0.33154141902923584 0.043137254901960784
3.6222336292266846 124.645751953125 -0.2965306341648102 0.03529411764705882
27.25594139099121 153.26150512695312 9.137699127197266 0.10196078431372549
-2.2257039546966553 117.81180572509766 1.399461030960083 0.011764705882352941
4.048861503601074 125.1053695678711 -0.1817890703678131 0.058823529411764705
4.026536464691162 125.09468841552734 0.06989703327417374 0.058823529411764705
4.020963191986084 125.10331726074219 0.31472060084342957 0.043137254901960784
0.09535038471221924 120.43250274658203 -0.43095850944519043 1.0
4.002708435058594 125.09717559814453 0.5622555017471313 0.00784313725490196
0.2747666835784912 120.64287567138672 -0.4468437135219574 0.03137254901960784
4.003897190093994 125.1135025024414 0.8027456402778625 0.09019607843137255
0.45667195320129395 120.85680389404297 -0.4526924788951874 0.047058823529411764
7.530588626861572 129.2566375732422 0.6180532574653625 1.0
0.6687542796134949 121.10578918457031 -0.466566264629364 0.050980392156862744
7.46392297744751 129.20132446289062 0.9923710227012634 0.01568627450980392
0.8959797620773315 121.37300109863281 -0.4741344153881073 0.023529411764705882
1.157494068145752 121.68023681640625 -0.48756277561187744 0.027450980392156862
20.80522346496582 144.95242309570312 1.5479552745819092 0.08627450980392157
1.4231188297271729 121.99332427978516 -0.4848513603210449 0.07450980392156863
1.7200820446014404 122.34353637695312 -0.4788425862789154 0.08627450980392157
1.7729016542434692 122.41474151611328 -0.3340456485748291 0.0392156862745098
2.058943748474121 122.7542953491211 -0.2923864424228668 0.0196078431372549
2.4012417793273926 123.15999603271484 -0.2528667747974396 0.08235294117647059
27.565135955810547 153.25094604492188 6.9464192390441895 0.16862745098039217
3.108738422393799 123.9887924194336 -0.3279680609703064 0.043137254901960784
3.6546013355255127 124.63371276855469 -0.29782313108444214 0.03529411764705882
27.45751190185547 153.26181030273438 9.164207458496094 0.10196078431372549
-2.212787628173828 117.82296752929688 1.388818621635437 0.00784313725490196
4.067161560058594 125.07948303222656 -0.17900770902633667 0.058823529411764705
4.046042442321777 125.07032012939453 0.07215195894241333 0.058823529411764705
4.045622825622559 125.08492279052734 0.315660297870636 0.047058823529411764
0.11788608133792877 120.43871307373047 -0.44092780351638794 0.0
4.0182414054870605 125.06831359863281 0.5649749636650085 0.00784313725490196
0.28623121976852417 120.63545227050781 -0.4472118616104126 0.03137254901960784
4.023325443267822 125.08912658691406 0.8045833110809326 0.09019607843137255
0.46997854113578796 120.85020446777344 -0.45385560393333435 0.043137254901960784
7.602588176727295 129.26866149902344 0.6155725717544556 1.0
0.6816150546073914 121.09722900390625 -0.46677854657173157 0.050980392156862744
7.547420978546143 129.22727966308594 0.9902022480964661 0.011764705882352941
0.9108619093894958 121.36515808105469 -0.4750470817089081 0.027450980392156862
1.175764799118042 121.6744384765625 -0.48982590436935425 0.03137254901960784
20.96119499206543 144.96934509277344 1.551345944404602 0.34901960784313724
1.433686375617981 121.97694396972656 -0.4820004403591156 0.07058823529411765
1.7341525554656982 122.32907104492188 -0.4773789346218109 0.08627450980392157
1.7946847677230835 122.40869903564453 -0.33628132939338684 0.0392156862745098
2.076711654663086 122.74169158935547 -0.292081356048584 0.0196078431372549
2.418941020965576 123.1449203491211 -0.2519319951534271 0.07450980392156863
27.873769760131836 153.4007568359375 6.98609733581543 0.3411764705882353
3.1365573406219482 123.98041534423828 -0.3297633230686188 0.0392156862745098
27.806922912597656 153.39109802246094 8.092874526977539 0.17254901960784313
3.6805124282836914 124.61934661865234 -0.29795217514038086 0.03529411764705882
27.737398147583008 153.37905883789062 9.21198558807373 0.10196078431372549
-2.223388433456421 117.80760955810547 1.4007161855697632 0.011764705882352941
4.091991901397705 125.05561828613281 -0.17723557353019714 0.058823529411764705
4.0695013999938965 125.04502868652344 0.07421456277370453 0.054901960784313725
4.0664849281311035 125.05662536621094 0.31821995973587036 0.043137254901960784
0.11577241867780685 120.41505432128906 -0.42987704277038574 1.0
4.0402984619140625 125.04158020019531 0.5670964121818542 0.00784313725490196
0.29532167315483093 120.62297821044922 -0.44478094577789307 0.023529411764705882
4.048011779785156 125.06535339355469 0.8061646819114685 0.09019607843137255
0.4809569716453552 120.83843231201172 -0.4523397982120514 0.050980392156862744
7.663307189941406 129.25863647460938 0.6151998043060303 0.0196078431372549
0.6970372200012207 121.08880615234375 -0.46774351596832275 0.047058823529411764
7.634053707122803 129.2477264404297 0.9883878231048584 1.0
0.9308629035949707 121.3601303100586 -0.4782339334487915 0.03137254901960784
7.813204765319824 129.47828674316406 1.3466171026229858 1.0
1.1845088005065918 121.65471649169922 -0.48532500863075256 0.027450980392156862
21.035858154296875 144.8711395263672 1.5564193725585938 0.08627450980392157
1.4520820379257202 121.96611785888672 -0.4825532138347626 0.07450980392156863
1.7524778842926025 122.31585693359375 -0.4771270453929901 0.09411764705882353
1.8094780445098877 122.3910140991211 -0.33414092659950256 0.0392156862745098
2.0976552963256836 122.72879791259766 -0.292236864566803 0.0196078431372549
2.441225290298462 123.13091278076172 -0.2519270181655884 0.06666666666666667
28.090383529663086 153.41415405273438 7.008814811706543 0.3411764705882353
3.1616291999816895 123.96404266357422 -0.32952114939689636 0.0392156862745098
28.006237030029297 153.3848114013672 8.115673065185547 0.17254901960784313
3.7051312923431396 124.59825134277344 -0.29664528369903564 0.03137254901960784
27.907989501953125 153.33958435058594 9.230901718139648 0.20784313725490197
-2.2194008827209473 117.80863189697266 1.398662805557251 0.023529411764705882
4.114074230194092 125.0313949584961 -0.17514832317829132 0.058823529411764705
4.094102382659912 125.02381134033203 0.07552740722894669 0.054901960784313725
4.087173938751221 125.03094482421875 0.32041409611701965 0.047058823529411764
0.15189552307128906 120.43498229980469 -0.4502819776535034 0.0
4.066116809844971 125.02192687988281 0.5681570172309875 0.00784313725490196
0.3073398768901825 120.61495971679688 -0.4451143443584442 0.027450980392156862
4.0673298835754395 125.03817749023438 0.8082804679870605 0.09019607843137255
0.4924585521221161 120.82850646972656 -0.4517260193824768 0.047058823529411764
7.732451438903809 129.26220703125 0.6134869456291199 0.011764705882352941
0.7129751443862915 121.082275390625 -0.46956971287727356 0.047058823529411764
7.693951606750488 129.2408905029297 0.9885494709014893 1.0
0.9354103207588196 121.33920288085938 -0.47204095125198364 0.027450980392156862
7.831849575042725 129.422607421875 1.3495947122573853 0.00784313725490196
1.2072384357452393 121.65228271484375 -0.48976588249206543 0.03137254901960784
1.4696168899536133 121.95594024658203 -0.48314720392227173 0.07058823529411765
1.7711262702941895 122.30476379394531 -0.47757488489151 0.09411764705882353
1.8283556699752808 122.3797607421875 -0.33448928594589233 0.0392156862745098
2.1163275241851807 122.71522521972656 -0.2918742299079895 0.0196078431372549
2.458599805831909 123.1133804321289 -0.2504104673862457 0.06274509803921569
28.28691864013672 153.41529846191406 7.028874397277832 0.34509803921568627
3.180335521697998 123.94277954101562 -0.32743337750434875 0.0392156862745098
28.2176513671875 153.40406799316406 8.141860008239746 0.17647058823529413
3.7309720516204834 124.58112335205078 -0.29626592993736267 0.03137254901960784
28.10452651977539 153.34230041503906 9.25723934173584 0.20392156862745098
-2.2279539108276367 117.79593658447266 1.4084045886993408 0.023529411764705882
4.1412672996521 125.01298522949219 -0.17459915578365326 0.058823529411764705
4.114717960357666 124.99808502197266 0.07786141335964203 0.058823529411764705
-2.213589668273926 117.81434631347656 1.439264178276062 1.0
4.1143035888671875 125.01264190673828 0.32114189863204956 0.047058823529411764
0.17278552055358887 120.43780517578125 -0.4583003520965576 0.0
4.089252948760986 124.99922180175781 0.5697156190872192 0.00784313725490196
0.3193349242210388 120.6069107055664 -0.4454454779624939 0.023529411764705882
4.089163303375244 125.01396179199219 0.8099949955940247 0.10196078431372549
0.5039268136024475 120.81855773925781 -0.45111083984375 0.050980392156862744
7.7977728843688965 129.26095581054688 0.6122556924819946 0.0196078431372549
0.7264623045921326 121.0729751586914 -0.46973875164985657 0.047058823529411764
7.772305965423584 129.25486755371094 0.9872073531150818 1.0
0.9534099698066711 121.33332824707031 -0.4744769334793091 0.027450980392156862
7.921229839324951 129.44825744628906 1.349220633506775 1.0
1.2163242101669312 121.63455963134766 -0.48604634404182434 0.023529411764705882
1.4858746528625488 121.9443130493164 -0.48304057121276855 0.07058823529411765
1.7847017049789429 122.28797912597656 -0.47540295124053955 0.09411764705882353
1.8484739065170288 122.36986541748047 -0.3354448676109314 0.0392156862745098
2.134958505630493 122.70159149169922 -0.2915091812610626 0.01568627450980392
2.4759113788604736 123.09579467773438 -0.248892143368721 0.06666666666666667
28.511018753051758 153.44720458984375 7.053528308868408 0.34509803921568627
3.205411195755005 123.9287338256836 -0.32772356271743774 0.0392156862745098
28.42169952392578 153.41336059570312 8.166523933410645 0.17647058823529413
3.75546932220459 124.56244659423828 -0.29545238614082336 0.027450980392156862
28.315521240234375 153.36062622070312 9.287019729614258 0.20392156862745098
-2.2091012001037598 117.8130874633789 1.3924155235290527 0.023529411764705882
4.160581588745117 124.9856948852539 -0.17173722386360168 0.058823529411764705
-2.2827413082122803 117.73448944091797 1.480604887008667 1.0
4.140475749969482 124.97821044921875 0.07884059101343155 0.054901960784313725
-2.2118616104125977 117.81283569335938 1.4393573999404907 1.0
4.137447357177734 124.98979949951172 0.3227538764476776 0.043137254901960784
0.16877366602420807 120.41329193115234 -0.44632741808891296 0.0
4.108365535736084 124.97198486328125 0.572018027305603 0.00784313725490196
0.3313091993331909 120.59881591796875 -0.44577500224113464 0.027450980392156862
4.112229824066162 124.99117279052734 0.8115106225013733 0.09019607843137255
0.5141500234603882 120.80723571777344 -0.4496251046657562 0.050980392156862744
7.860551357269287 129.25640869140625 0.6113497018814087 0.0196078431372549
0.7362492680549622 121.0595932006836 -0.4674254059791565 0.047058823529411764
7.845573425292969 129.262451171875 0.9863182902336121 1.0
0.966463565826416 121.3219223022461 -0.47377312183380127 0.027450980392156862
7.992405891418457 129.4524383544922 1.349735975265503 1.0
1.2353105545043945 121.62783813476562 -0.48825618624687195 0.03137254901960784
1.50084388256073 121.93123626708984 -0.4822334945201874 0.07450980392156863
1.8020122051239014 122.2753677368164 -0.4751920998096466 0.09411764705882353
1.859657645225525 122.3499755859375 -0.3321274220943451 0.0392156862745098
2.1497080326080322 122.6836166381836 -0.2894447147846222 0.0196078431372549
2.5047590732574463 123.09111022949219 -0.25205734372138977 0.06666666666666667
28.68999481201172 153.42550659179688 7.070651531219482 0.34509803921568627
3.227867603302002 123.91169738769531 -0.32705822587013245 0.0392156862745098
28.62350845336914 153.41871643066406 8.190711975097656 0.17647058823529413
3.790314197540283 124.55535125732422 -0.2980790436267853 0.03529411764705882
28.514001846313477 153.363037109375 9.313763618469238 0.20392156862745098
-2.2085185050964355 117.8103256225586 1.3935810327529907 0.03529411764705882
4.186344146728516 124.96566009521484 -0.17079634964466095 0.058823529411764705
-2.2754480838775635 117.7394790649414 1.475524663925171 1.0
4.160923957824707 124.95236206054688 0.08117897063493729 0.054901960784313725
-2.2796757221221924 117.73606872558594 1.4979794025421143 1.0
4.1578826904296875 124.96392822265625 0.32495471835136414 0.0392156862745098
0.1717880368232727 120.39659118652344 -0.4400673508644104 0.0
4.131338596343994 124.94915008544922 0.5735813975334167 0.00784313725490196
0.3420586884021759 120.58936309814453 -0.4451924264431 0.03137254901960784
4.136545181274414 124.96979522705078 0.8128284215927124 0.10196078431372549
0.5267713069915771 120.79853820800781 -0.44987595081329346 0.050980392156862744
7.935323238372803 129.26502990722656 0.6090681552886963 1.0
0.7459864020347595 121.04618835449219 -0.4651110768318176 0.050980392156862744
7.917673587799072 129.26820373535156 0.9855560064315796 1.0
0.9832054376602173 121.31455993652344 -0.47541898488998413 0.03137254901960784
1.2442861795425415 121.61006164550781 -0.4845348298549652 0.027450980392156862
1.5157740116119385 121.9181137084961 -0.4814243018627167 0.07450980392156863
1.8205595016479492 122.26409912109375 -0.4756317734718323 0.09411764705882353
1.8809903860092163 122.34136962890625 -0.3336871266365051 0.0392156862745098
2.170823812484741 122.67272186279297 -0.29020535945892334 0.0196078431372549
2.523287534713745 123.07482147216797 -0.2510531544685364 0.06274509803921569
28.888776779174805 153.42547607421875 7.091072082519531 0.34901960784313724
3.2541773319244385 123.89891815185547 -0.32781583070755005 0.047058823529411764
28.819149017333984 153.41567993164062 8.213635444641113 0.17647058823529413
3.808218002319336 124.52920532226562 -0.2951047122478485 0.03529411764705882
28.721891403198242 153.37496948242188 9.342720985412598 0.20392156862745098
-2.2090070247650146 117.8062515258789 1.3958231210708618 0.03529411764705882
4.2120819091796875 124.94288635253906 -0.16939403116703033 0.058823529411764705
-2.232976198196411 117.78193664550781 1.4394981861114502 1.0
4.19185209274292 124.9355239868164 0.08122213929891586 0.058823529411764705
-2.2272515296936035 117.78936767578125 1.4554179906845093 1.0
4.187500476837158 124.94564819335938 0.32547393441200256 0.043137254901960784
0.15493714809417725 120.35749053955078 -0.4176073968410492 1.0
4.158224105834961 124.92800903320312 0.574727475643158 0.00784313725490196
0.35216110944747925 120.57804870605469 -0.4436661899089813 0.03529411764705882
4.160807132720947 124.94567108154297 0.8144229650497437 0.09019607843137255
0.5448878407478333 120.7945327758789 -0.453563392162323 0.043137254901960784
8.115970611572266 129.3874053955078 0.5948919653892517 0.00784313725490196
0.7625150680541992 121.03885650634766 -0.4668913781642914 0.050980392156862744
8.00529670715332 129.28668212890625 0.9838504195213318 1.0
0.9919390678405762 121.29700469970703 -0.4715372622013092 0.027450980392156862
1.2652592658996582 121.6039047241211 -0.48743754625320435 0.03137254901960784
1.5314865112304688 121.90421295166016 -0.4805682599544525 0.07450980392156863
1.8386900424957275 122.25057983398438 -0.4753669202327728 0.09411764705882353
1.8980776071548462 122.32624816894531 -0.3327561616897583 0.0392156862745098
2.1915805339813232 122.65947723388672 -0.29034510254859924 0.0196078431372549
2.621957778930664 123.1447982788086 -0.28171631693840027 0.403921568627451
29.092782974243164 153.4175262451172 7.111663818359375 0.17254901960784313
3.276413917541504 123.87924194335938 -0.32660427689552307 0.043137254901960784
29.021297454833984 153.40625 8.236944198608398 0.17647058823529413
3.837773084640503 124.51348876953125 -0.2954999506473541 0.03529411764705882
