-26.942445755004883 135.64036560058594 1.3610572814941406 0.09803921568627451
-7.488683700561523 120.89640808105469 -0.4392787218093872 0.03137254901960784
-40.62971496582031 145.99667358398438 2.208839178085327 0.24313725490196078
-7.860930919647217 121.17680358886719 -0.4468417465686798 0.10196078431372549
-40.6815071105957 146.0812225341797 3.3145859241485596 0.16862745098039217
-8.294814109802246 121.50347900390625 -0.4593368172645569 0.01568627450980392
-8.762022018432617 121.85579681396484 -0.45937803387641907 0.023529411764705882
-9.385120391845703 122.32461547851562 -0.48500797152519226 0.0196078431372549
-10.087489128112793 122.85360717773438 -0.500954270362854 0.011764705882352941
-11.052756309509277 123.57943725585938 -0.5511919856071472 0.011764705882352941
-5.545288562774658 119.44558715820312 -0.44655004143714905 0.01568627450980392
-12.31285285949707 124.57685852050781 -0.6257591843605042 0.027450980392156862
-5.696864128112793 119.56060028076172 -0.448434442281723 0.01568627450980392
-14.423847198486328 126.17203521728516 -0.8133277893066406 0.011764705882352941
-5.863490104675293 119.68692016601562 -0.45336005091667175 0.0196078431372549
-16.187950134277344 127.51167297363281 -0.8097423315048218 0.03137254901960784
-6.034481525421143 119.81681823730469 -0.4516920745372772 0.023529411764705882
-18.641536712646484 129.37448120117188 -0.8149323463439941 0.0392156862745098
-6.215731143951416 119.95467376708984 -0.44602829217910767 0.023529411764705882
-18.838882446289062 129.54246520996094 -0.37344807386398315 0.10196078431372549
-6.425490856170654 120.11384582519531 -0.4484923183917999 0.027450980392156862
-18.856395721435547 129.57508850097656 0.09701208025217056 0.1450980392156863
-6.644210338592529 120.28010559082031 -0.4441130757331848 0.03137254901960784
-18.86528205871582 129.601318359375 0.5713843107223511 0.10588235294117647
-6.895719051361084 120.47107696533203 -0.44402241706848145 0.0196078431372549
-26.837495803833008 135.6581268310547 0.6558531522750854 0.12549019607843137
-7.171022415161133 120.68017578125 -0.44264909625053406 0.027450980392156862
-26.78615951538086 135.64805603027344 1.359610915184021 0.09803921568627451
-7.4766340255737305 120.91233825683594 -0.4399334192276001 0.03137254901960784
-40.639892578125 146.20196533203125 2.20473051071167 0.24313725490196078
-7.8479485511779785 121.19396209716797 -0.4475470781326294 0.06666666666666667
-40.686702728271484 146.28305053710938 3.3133466243743896 0.16862745098039217
-8.277695655822754 121.51980590820312 -0.4588516652584076 0.01568627450980392
-8.749855041503906 121.87821960449219 -0.461367130279541 0.01568627450980392
-9.374503135681152 122.3514175415039 -0.4880634546279907 0.01568627450980392
-10.075148582458496 122.88276672363281 -0.5039260387420654 0.01568627450980392
-11.022412300109863 123.60015106201172 -0.5496571660041809 0.011764705882352941
-5.531655311584473 119.44962310791016 -0.4414920210838318 0.01568627450980392
-12.278883934020996 124.59881591796875 -0.6241978406906128 0.03529411764705882
-5.689648151397705 119.57007598876953 -0.44882333278656006 0.01568627450980392
-14.353373527526855 126.17684936523438 -0.8052637577056885 0.011764705882352941
-5.8558759689331055 119.69691467285156 -0.4537704288959503 0.0196078431372549
-16.147798538208008 127.54808044433594 -0.8099370002746582 0.03137254901960784
-6.019407272338867 119.82215881347656 -0.44729551672935486 0.0196078431372549
-18.582862854003906 129.40896606445312 -0.8135727047920227 0.0196078431372549
-6.204422473907471 119.96366882324219 -0.4446347951889038 0.023529411764705882
-18.83989143371582 129.62315368652344 -0.38094228506088257 0.10196078431372549
-6.40932035446167 120.12026977539062 -0.4445590674877167 0.027450980392156862
-18.86379051208496 129.66075134277344 0.08998897671699524 0.12156862745098039
-6.634733200073242 120.29254150390625 -0.4446238577365875 0.03137254901960784
-18.86795425415039 129.68345642089844 0.5660842657089233 0.10588235294117647
-6.881223678588867 120.48102569580078 -0.4421694874763489 0.0196078431372549
-26.68924331665039 135.6647491455078 0.6571599245071411 0.12156862745098039
-7.155828952789307 120.69094848632812 -0.4409596621990204 0.027450980392156862
-26.62691879272461 135.64588928222656 1.3584989309310913 0.1411764705882353
-7.466668128967285 120.92849731445312 -0.44126424193382263 0.027450980392156862
-40.63829040527344 146.38888549804688 2.200727939605713 0.24313725490196078
-7.832576274871826 121.20792388916016 -0.44687485694885254 0.06274509803921569
-40.6865119934082 146.47132873535156 3.311999559402466 0.16862745098039217
-8.258231163024902 121.53282165527344 -0.45707258582115173 0.01568627450980392
-8.735350608825684 121.89725494384766 -0.46214887499809265 0.0196078431372549
-9.341550827026367 122.35969543457031 -0.48303088545799255 0.011764705882352941
-10.031126976013184 122.88616180419922 -0.49653059244155884 0.011764705882352941
-10.994690895080566 123.62045288085938 -0.54850172996521 0.011764705882352941
-5.530200004577637 119.46256256103516 -0.44620200991630554 0.01568627450980392
-12.249557495117188 124.62417602539062 -0.6238304376602173 0.03529411764705882
-5.672802448272705 119.57243347167969 -0.44188791513442993 0.01568627450980392
-14.289259910583496 126.18606567382812 -0.7986026406288147 0.011764705882352941
-5.846842288970947 119.70585632324219 -0.4531729817390442 0.023529411764705882
-16.09654998779297 127.5759506225586 -0.8079594373703003 0.03137254901960784
-6.01418399810791 119.83472442626953 -0.44965729117393494 0.0196078431372549
-18.530437469482422 129.44801330566406 -0.8132515549659729 0.0196078431372549
-6.204482078552246 119.9810791015625 -0.4506368935108185 0.027450980392156862
-18.84845733642578 129.7100067138672 -0.38952285051345825 0.10196078431372549
-6.404664039611816 120.13518524169922 -0.4476890563964844 0.03137254901960784
-18.85655975341797 129.7356719970703 0.0844975933432579 0.13333333333333333
-6.62812614440918 120.30712127685547 -0.4468156099319458 0.03137254901960784
-18.87660789489746 129.7705841064453 0.5602855086326599 0.11764705882352941
-6.871115684509277 120.49420928955078 -0.4427099823951721 0.023529411764705882
-26.550708770751953 135.6779327392578 0.6580358743667603 0.11764705882352941
-7.150990962982178 120.70942687988281 -0.44456014037132263 0.03137254901960784
-26.483789443969727 135.65509033203125 1.3571122884750366 0.09411764705882353
-7.449172496795654 120.93903350830078 -0.43902793526649475 0.03529411764705882
-40.6501579284668 146.5870361328125 2.1968603134155273 0.24313725490196078
-7.817168235778809 121.2218246459961 -0.446199506521225 0.0392156862745098
-40.70134735107422 146.67208862304688 3.3112666606903076 0.16862745098039217
-8.244813919067383 121.5503158569336 -0.4577900469303131 0.01568627450980392
-8.722314834594727 121.91740417480469 -0.46350860595703125 0.01568627450980392
-9.3378324508667 122.38987731933594 -0.4881764352321625 0.011764705882352941
-10.022727012634277 122.9162368774414 -0.5004233121871948 0.01568627450980392
-10.960710525512695 123.63593292236328 -0.5455558896064758 0.011764705882352941
-5.524641513824463 119.4725112915039 -0.4476540982723236 0.01568627450980392
-12.195249557495117 124.63040924072266 -0.6170467734336853 0.03137254901960784
-5.672390460968018 119.5869140625 -0.4475040137767792 0.01568627450980392
-14.220512390136719 126.19139099121094 -0.7908616662025452 1.0
-5.841940879821777 119.71786499023438 -0.45559319853782654 0.023529411764705882
-16.040546417236328 127.5999984741211 -0.8050425052642822 0.03137254901960784
-6.010315895080566 119.84833526611328 -0.4529843032360077 0.023529411764705882
-18.47163200378418 129.48202514648438 -0.811867356300354 0.0196078431372549
-6.184581756591797 119.983642578125 -0.4436906576156616 0.023529411764705882
-18.847166061401367 129.78977966308594 -0.3968062400817871 0.10588235294117647
-6.39133358001709 120.1436538696289 -0.4455171227455139 0.043137254901960784
-18.867961883544922 129.8252716064453 0.07695553451776505 0.12941176470588237
-6.612758636474609 120.31515502929688 -0.443956196308136 0.03137254901960784
-18.875383377075195 129.8505859375 0.5552271008491516 0.10588235294117647
-6.860964775085449 120.50736236572266 -0.44324856996536255 0.023529411764705882
-26.407573699951172 135.68675231933594 0.6591772437095642 0.054901960784313725
-7.131289958953857 120.7167739868164 -0.4405968487262726 0.027450980392156862
-26.332921981811523 135.657470703125 1.3559157848358154 0.13725490196078433
-7.4450812339782715 120.95962524414062 -0.4432066082954407 0.03529411764705882
-40.65639877319336 146.7819061279297 2.1929380893707275 0.24313725490196078
-7.810741901397705 121.24248504638672 -0.44953668117523193 0.01568627450980392
-40.693180084228516 146.8560791015625 3.3096606731414795 0.16862745098039217
-8.22679615020752 121.5643310546875 -0.456628680229187 0.01568627450980392
-8.709210395812988 121.93751525878906 -0.4648658335208893 0.011764705882352941
-9.315577507019043 122.4061050415039 -0.48688632249832153 0.011764705882352941
-9.986441612243652 122.92517852783203 -0.49546948075294495 0.011764705882352941
-10.9375638961792 123.6595458984375 -0.5457265973091125 0.011764705882352941
-5.512320041656494 119.47742462158203 -0.44367554783821106 0.01568627450980392
-12.161194801330566 124.65188598632812 -0.6154608726501465 0.0392156862745098
-5.659633636474609 119.59222412109375 -0.4437023997306824 0.01568627450980392
-14.151853561401367 126.19636535644531 -0.7831044793128967 1.0
-5.8328471183776855 119.72675323486328 -0.45499226450920105 0.0196078431372549
-16.01426124572754 127.64672088623047 -0.8079937100410461 0.03137254901960784
-5.9965949058532715 119.85458374023438 -0.44954633712768555 0.023529411764705882
-18.412771224975586 129.5157928466797 -0.8104695677757263 0.0196078431372549
-6.183121204376221 119.9999771118164 -0.4487658143043518 0.027450980392156862
-18.84711456298828 129.87086486816406 -0.4043083190917969 0.10588235294117647
-6.380853652954102 120.15422058105469 -0.44510966539382935 0.043137254901960784
-18.864784240722656 129.904052734375 0.07094810903072357 0.12941176470588237
-6.604619979858398 120.3285903930664 -0.44530290365219116 0.03137254901960784
-18.87066650390625 129.92823791503906 0.5504159927368164 0.09803921568627451
-6.85077428817749 120.5204849243164 -0.44378504157066345 0.01568627450980392
-26.255163192749023 135.6875 0.6608209013938904 0.08235294117647059
-7.123391628265381 120.73297882080078 -0.4426806569099426 0.027450980392156862
-26.231201171875 135.6971435546875 1.353773593902588 0.043137254901960784
-7.42454195022583 120.9677963256836 -0.43953776359558105 0.03137254901960784
-40.65233612060547 146.96969604492188 2.1889193058013916 0.24313725490196078
-7.799739360809326 121.25972747802734 -0.45086440443992615 0.01568627450980392
-40.690547943115234 147.0452117919922 3.308298110961914 0.17254901960784313
-8.20723819732666 121.5771255493164 -0.45483797788619995 0.01568627450980392
-8.680832862854004 121.94596862792969 -0.4604068696498871 0.011764705882352941
-9.308591842651367 122.4339370727539 -0.49095621705055237 0.011764705882352941
-9.979413032531738 122.95634460449219 -0.4998478889465332 0.01568627450980392
-10.906621932983398 123.67713165283203 -0.5436598658561707 0.011764705882352941
-5.503636837005615 119.48580169677734 -0.44297242164611816 0.01568627450980392
-12.12270736694336 124.67247772216797 -0.6131330728530884 0.0392156862745098
-5.666885852813721 119.6133804321289 -0.4556185305118561 0.01568627450980392
-14.061495780944824 126.18730926513672 -0.7707911133766174 1.0
-5.817781448364258 119.73199462890625 -0.4503847360610962 0.0196078431372549
-15.962580680847168 127.67752838134766 -0.8063889741897583 0.03137254901960784
-5.98939847946167 119.86663055419922 -0.45096176862716675 0.023529411764705882
-18.353273391723633 129.55325317382812 -0.8094341158866882 0.0196078431372549
-6.168393135070801 120.0073013305664 -0.4455384612083435 0.023529411764705882
-18.849199295043945 129.9585723876953 -0.41258031129837036 0.10588235294117647
-6.369837760925293 120.16539001464844 -0.4447261393070221 0.043137254901960784
-18.865341186523438 129.99069213867188 0.06413879245519638 0.11764705882352941
-6.590122699737549 120.33829498291016 -0.44330742955207825 0.0392156862745098
-18.875988006591797 130.01864624023438 0.5444916486740112 0.12156862745098039
-6.837055683135986 120.53207397460938 -0.44275012612342834 0.0196078431372549
-26.911842346191406 136.3271026611328 0.6219483017921448 0.10588235294117647
-7.1133551597595215 120.74881744384766 -0.4440385103225708 0.027450980392156862
-18.990379333496094 130.14723205566406 1.4960451126098633 0.011764705882352941
-7.418190956115723 120.98804473876953 -0.44303348660469055 0.03529411764705882
-40.65800476074219 147.1767120361328 2.1847751140594482 0.24313725490196078
-7.795456409454346 121.28355407714844 -0.4555746912956238 0.0196078431372549
-40.71332550048828 147.26596069335938 3.3078858852386475 0.17254901960784313
-8.195940971374512 121.59774017333984 -0.4568368196487427 0.01568627450980392
-8.666812896728516 121.96700286865234 -0.46179988980293274 0.011764705882352941
-9.280746459960938 122.4476547241211 -0.4880957007408142 0.011764705882352941
-9.948238372802734 122.97103881835938 -0.49689969420433044 0.01568627450980392
-10.880699157714844 123.70079040527344 -0.5434316992759705 0.011764705882352941
-5.502014636993408 119.49872589111328 -0.44767963886260986 0.01568627450980392
-12.08548641204834 124.69125366210938 -0.6107293367385864 0.0392156862745098
-5.644567489624023 119.61143493652344 -0.4444860816001892 0.01568627450980392
-14.005471229553223 126.20120239257812 -0.7658439874649048 1.0
-5.815530300140381 119.74602508544922 -0.45481446385383606 0.0196078431372549
-15.915782928466797 127.7082290649414 -0.8052980303764343 0.03137254901960784
-5.979827880859375 119.8759536743164 -0.45041850209236145 0.023529411764705882
-18.28180503845215 129.5767364501953 -0.8059008717536926 0.01568627450980392
-6.159774303436279 120.01824951171875 -0.44598492980003357 0.027450980392156862
-18.84841537475586 130.0399169921875 -0.4200870394706726 0.10980392156862745
-6.360722064971924 120.17697143554688 -0.44519832730293274 0.0392156862745098
-18.863027572631836 130.07093811035156 0.05795669183135033 0.13333333333333333
-6.583343982696533 120.35277557373047 -0.4454922080039978 0.03529411764705882
-18.875274658203125 130.1002197265625 0.5393027663230896 0.09803921568627451
-6.829696178436279 120.54734802246094 -0.4448813796043396 0.0196078431372549
-26.03731346130371 135.76121520996094 0.6595772504806519 0.054901960784313725
-7.098002910614014 120.75934600830078 -0.4423350691795349 0.027450980392156862
-18.96745491027832 130.2119140625 1.493610143661499 0.011764705882352941
-7.405009746551514 121.00177001953125 -0.44292598962783813 0.03529411764705882
-40.67108917236328 147.3799591064453 2.180922269821167 0.24313725490196078
-7.781332015991211 121.29845428466797 -0.455559104681015 0.023529411764705882
-40.71051788330078 147.45697021484375 3.306572198867798 0.17254901960784313
-8.180817604064941 121.61388397216797 -0.4569163918495178 0.01568627450980392
-8.638412475585938 121.9752426147461 -0.45732975006103516 0.011764705882352941
-9.252269744873047 122.45890808105469 -0.48464491963386536 0.011764705882352941
-9.931825637817383 122.9950180053711 -0.4983214735984802 0.01568627450980392
-10.854299545288086 123.72171783447266 -0.5426926016807556 0.011764705882352941
-5.499000072479248 119.51063537597656 -0.45130011439323425 0.01568627450980392
-12.046697616577148 124.70866394042969 -0.607915997505188 0.050980392156862744
-5.6439642906188965 119.62590789794922 -0.45010000467300415 0.01568627450980392
-13.958755493164062 126.22213745117188 -0.7630199790000916 1.0
-5.809102535247803 119.75691986083984 -0.4562224745750427 0.01568627450980392
-15.886000633239746 127.75218200683594 -0.8076085448265076 0.03137254901960784
-5.968841552734375 119.88418579101562 -0.4489067792892456 0.03137254901960784
-18.224355697631836 129.61093139648438 -0.804726779460907 0.01568627450980392
-6.153932094573975 120.03132629394531 -0.44828107953071594 0.027450980392156862
-18.855073928833008 130.12754821777344 -0.42868518829345703 0.09411764705882353
-6.351568698883057 120.18852233886719 -0.4456687569618225 0.027450980392156862
-18.86817741394043 130.15748596191406 0.05091420188546181 0.12156862745098039
-6.573637962341309 120.36502075195312 -0.44599103927612305 0.03529411764705882
-18.87420082092285 130.1819305419922 0.5341114401817322 0.09803921568627451
-6.816477298736572 120.5581283569336 -0.44381192326545715 0.0196078431372549
-25.927656173706055 135.79342651367188 0.6591933369636536 0.08235294117647059
-7.08848237991333 120.77433776855469 -0.44365665316581726 0.027450980392156862
-18.956806182861328 130.28652954101562 1.4909203052520752 0.011764705882352941
-7.385880470275879 121.01087188720703 -0.43995994329452515 0.03529411764705882
-40.68012237548828 147.5811004638672 2.1770317554473877 0.24313725490196078
-7.768651008605957 121.314453125 -0.4562108516693115 0.03137254901960784
-40.733455657958984 147.66944885253906 3.3062877655029297 0.17254901960784313
-8.165644645690918 121.62997436523438 -0.4569929838180542 0.01568627450980392
-8.620584487915039 121.99158477783203 -0.45692694187164307 0.011764705882352941
-9.24049186706543 122.48308563232422 -0.4870954751968384 0.01568627450980392
-9.895477294921875 123.0034408569336 -0.49334079027175903 0.011764705882352941
-10.820171356201172 123.73654174804688 -0.5397125482559204 0.011764705882352941
-5.474621772766113 119.50621032714844 -0.43753281235694885 0.011764705882352941
-12.004820823669434 124.72347259521484 -0.604290783405304 0.06274509803921569
-5.637895584106445 119.6362533569336 -0.45152580738067627 0.01568627450980392
-13.891955375671387 126.22699737548828 -0.755556046962738 1.0
-5.804007530212402 119.76885223388672 -0.4586367905139923 0.0196078431372549
-15.85607624053955 127.79605102539062 -0.8099130392074585 0.03137254901960784
-5.95922327041626 119.89344024658203 -0.44835934042930603 0.03137254901960784
-18.17772674560547 129.65350341796875 -0.8053882718086243 0.01568627450980392
-6.142432689666748 120.0400619506836 -0.4468727111816406 0.0196078431372549
-18.853565216064453 130.20916748046875 -0.43619734048843384 0.11372549019607843
-6.343798637390137 120.2011489868164 -0.447022020816803 0.027450980392156862
-18.87139129638672 130.24295043945312 0.0440402515232563 0.12156862745098039
-6.5653276443481445 120.37835693359375 -0.4473307430744171 0.03529411764705882
-18.877464294433594 130.26748657226562 0.5285427570343018 0.09803921568627451
-6.807574272155762 120.57223510742188 -0.44513988494873047 0.0196078431372549
-25.841466903686523 135.84381103515625 0.6576516628265381 0.054901960784313725
-7.074532508850098 120.78589630126953 -0.44270434975624084 0.027450980392156862
-18.998971939086914 130.4036407470703 1.4871265888214111 0.011764705882352941
-7.378526210784912 121.02908325195312 -0.44270262122154236 0.03529411764705882
-40.682037353515625 147.77757263183594 2.17307710647583 0.24313725490196078
-7.748498916625977 121.32461547851562 -0.4535088539123535 0.03137254901960784
-40.71332931518555 147.8485870361328 3.3043549060821533 0.17254901960784313
-8.14444637298584 121.64132690429688 -0.4545608460903168 0.01568627450980392
-8.59970474243164 122.0054931640625 -0.4553559720516205 0.011764705882352941
-9.219539642333984 122.50009155273438 -0.48632052540779114 0.01568627450980392
-9.88809585571289 123.03446197509766 -0.49770793318748474 0.01568627450980392
-10.79369068145752 123.75724029541016 -0.5389611721038818 0.011764705882352941
-5.475552558898926 119.52113342285156 -0.44441017508506775 0.01568627450980392
-11.966010093688965 124.74052429199219 -0.6014599204063416 0.0392156862745098
-5.630441665649414 119.64553833007812 -0.45190292596817017 0.01568627450980392
-13.83139705657959 126.2364273071289 -0.7495020031929016 1.0
-5.790674209594727 119.77442932128906 -0.45500487089157104 0.01568627450980392
-15.835275650024414 127.84722137451172 -0.8140754699707031 0.03137254901960784
-5.949579238891602 119.90265655517578 -0.44781023263931274 0.0392156862745098
-18.110837936401367 129.67984008789062 -0.8026047945022583 0.01568627450980392
-6.130912780761719 120.04875183105469 -0.4454619586467743 0.023529411764705882
-18.85324478149414 130.29214477539062 -0.44392940402030945 0.09803921568627451
-6.333155155181885 120.21154022216797 -0.44660407304763794 0.027450980392156862
-18.875778198242188 130.32980346679688 0.03699098527431488 0.11372549019607843
-6.551253795623779 120.38719940185547 -0.44529733061790466 0.03529411764705882
-18.88812828063965 130.35943603515625 0.5223438143730164 0.11764705882352941
-6.794292449951172 120.58293151855469 -0.4440653622150421 0.01568627450980392
-25.777000427246094 135.91136169433594 0.6550214290618896 0.027450980392156862
-7.060553073883057 120.79740142822266 -0.4417494237422943 0.027450980392156862
-19.004714965820312 130.49234008789062 1.4840714931488037 0.011764705882352941
-7.356411457061768 121.03575134277344 -0.438301146030426 0.027450980392156862
-40.678409576416016 147.97061157226562 2.169074296951294 0.24313725490196078
-7.741660118103027 121.34517669677734 -0.45683637261390686 0.03137254901960784
-40.73134994506836 148.0592803955078 3.3039331436157227 0.17647058823529413
-8.129197120666504 121.65729522705078 -0.45463019609451294 0.01568627450980392
-8.58480167388916 122.02406311035156 -0.45611000061035156 0.011764705882352941
-9.200054168701172 122.5182113647461 -0.4860783517360687 0.01568627450980392
-9.847158432006836 123.03901672363281 -0.4912364184856415 0.011764705882352941
-10.771742820739746 123.78147888183594 -0.5395470857620239 0.011764705882352941
-5.466742515563965 119.52937316894531 -0.44369879364967346 0.01568627450980392
-11.925878524780273 124.75902557373047 -0.5986856818199158 0.0392156862745098
-5.625230312347412 119.65740966796875 -0.4543941617012024 0.01568627450980392
-13.780072212219238 126.25611114501953 -0.7460076808929443 1.0
-5.785070419311523 119.78685760498047 -0.4574381709098816 0.01568627450980392
-15.809341430664062 127.89817810058594 -0.8177053332328796 0.03137254901960784
-5.940827369689941 119.91349029541016 -0.448249489068985 0.0392156862745098
-16.189058303833008 128.2195587158203 -0.4828084409236908 0.023529411764705882
-6.123071670532227 120.061279296875 -0.4468519985675812 0.023529411764705882
-18.85028076171875 130.37806701660156 -0.4517780840396881 0.054901960784313725
-6.323378562927246 120.22364044189453 -0.44709476828575134 0.027450980392156862
-18.87438201904297 130.41712951660156 0.030168665573000908 0.11372549019607843
-6.540894508361816 120.40001678466797 -0.4458172619342804 0.03529411764705882
-18.888315200805664 130.44813537597656 0.5166535973548889 0.11764705882352941
-6.784723281860352 120.59768676757812 -0.44541820883750916 0.01568627450980392
-26.18926429748535 136.37095642089844 0.6277457475662231 0.027450980392156862
-7.044475078582764 120.80846405029297 -0.44006478786468506 0.027450980392156862
-7.346831798553467 121.05355072021484 -0.44035792350769043 0.03137254901960784
-40.69033432006836 148.18817138671875 2.1649930477142334 0.24313725490196078
-7.725165843963623 121.3595962524414 -0.4561745524406433 0.03137254901960784
-40.71821594238281 148.25685119628906 3.3022689819335938 0.17647058823529413
-8.111645698547363 121.6729736328125 -0.4541083574295044 0.01568627450980392
-8.563017845153809 122.03884887695312 -0.4545725882053375 0.011764705882352941
-9.175081253051758 122.53379821777344 -0.48426553606987 0.01568627450980392
-9.818899154663086 123.05548858642578 -0.4892417788505554 0.011764705882352941
-10.72116470336914 123.78514862060547 -0.532126247882843 0.011764705882352941
-5.464914321899414 119.5422592163086 -0.4484020173549652 0.01568627450980392
-11.876357078552246 124.76713562011719 -0.5930216908454895 0.0392156862745098
-5.615029335021973 119.66455841064453 -0.45267346501350403 0.01568627450980392
-13.721125602722168 126.2662124633789 -0.7402836084365845 1.0
-5.773067951202393 119.79340362548828 -0.4548090994358063 0.01568627450980392
-15.789690017700195 127.95052337646484 -0.8221707344055176 0.03137254901960784
-5.929752826690674 119.92156219482422 -0.4467289447784424 0.0392156862745098
-16.159238815307617 128.26564025878906 -0.4853171408176422 0.054901960784313725
-6.121240615844727 120.07757568359375 -0.45192137360572815 0.027450980392156862
-16.15526008605957 128.27886962890625 -0.07825619727373123 0.0784313725490196
-6.315486431121826 120.23619079589844 -0.4484430253505707 0.03529411764705882
-18.87798500061035 130.50428771972656 0.02311331406235695 0.12549019607843137
-6.5296196937561035 120.4110107421875 -0.44546473026275635 0.03529411764705882
-18.879554748535156 130.5253448486328 0.5119556784629822 0.10588235294117647
-6.774248123168945 120.6105728149414 -0.4459397494792938 0.0196078431372549
-26.033266067504883 136.3664093017578 0.6296910643577576 0.027450980392156862
-7.042031764984131 120.82907104492188 -0.44516637921333313 0.027450980392156862
-18.99408721923828 130.6578826904297 1.4782322645187378 0.011764705882352941
-7.332000732421875 121.06586456298828 -0.43952152132987976 0.03529411764705882
-40.69423294067383 148.389404296875 2.1610610485076904 0.24313725490196078
-7.709348201751709 121.37307739257812 -0.4554738700389862 0.03137254901960784
-40.7390022277832 148.4720916748047 3.302011728286743 0.17647058823529413
-8.099272727966309 121.69119262695312 -0.4554251432418823 0.01568627450980392
-8.565937995910645 122.07164001464844 -0.46231257915496826 0.011764705882352941
-9.157010078430176 122.55296325683594 -0.484552264213562 0.01568627450980392
-9.809759140014648 123.08515930175781 -0.4931061863899231 0.01568627450980392
-10.700654983520508 123.81037139892578 -0.5331473350524902 0.011764705882352941
-5.454721927642822 119.5494155883789 -0.44660061597824097 0.01568627450980392
-11.839263916015625 124.78770446777344 -0.5910329222679138 0.043137254901960784
-5.607067108154297 119.67428588867188 -0.45306670665740967 0.01568627450980392
-13.659125328063965 126.2767105102539 -0.734266459941864 1.0
-5.761968612670898 119.801513671875 -0.45320743322372437 0.023529411764705882
-15.77103042602539 128.00762939453125 -0.8273477554321289 0.03137254901960784
-5.9168243408203125 119.92906951904297 -0.44426122307777405 0.0392156862745098
-16.11504364013672 128.30398559570312 -0.4857960641384125 0.0784313725490196
-6.102193355560303 120.08126068115234 -0.4458963871002197 0.023529411764705882
-16.11260986328125 128.31842041015625 -0.07918312400579453 0.0784313725490196
-6.301418304443359 120.24488067626953 -0.4462742805480957 0.047058823529411764
-18.878877639770508 130.59442138671875 0.015940599143505096 0.11764705882352941
-6.519181251525879 120.42375946044922 -0.4459802508354187 0.03137254901960784
-18.878963470458984 130.61428833007812 0.5062615871429443 0.10588235294117647
-6.761715888977051 120.62298583984375 -0.44568729400634766 0.023529411764705882
-18.98760986328125 130.72293090820312 0.9864820837974548 0.00784313725490196
-7.025871276855469 120.84004974365234 -0.4434761703014374 0.023529411764705882
-19.00406837463379 130.7561798095703 1.4748873710632324 0.011764705882352941
-40.7026252746582 148.60647583007812 2.156949520111084 0.12156862745098039
-7.69130802154541 121.38619232177734 -0.45413386821746826 0.03137254901960784
-40.73947525024414 148.68296813964844 3.300936698913574 0.17647058823529413
-8.081624031066895 121.70675659179688 -0.45489636063575745 0.01568627450980392
-8.549985885620117 122.09112548828125 -0.4631004333496094 0.011764705882352941
-9.124465942382812 122.56230926513672 -0.4800388216972351 0.011764705882352941
-9.773857116699219 123.0953598022461 -0.4886350631713867 0.011764705882352941
-10.684982299804688 123.84182739257812 -0.5360133647918701 0.011764705882352941
-5.447543144226074 119.55812072753906 -0.44695231318473816 0.01568627450980392
-11.800416946411133 124.80403900146484 -0.5881659388542175 0.043137254901960784
-5.590161323547363 119.67605590820312 -0.44610124826431274 0.01568627450980392
-13.597233772277832 126.28374481201172 -0.7278006672859192 1.0
-5.75534725189209 119.81226348876953 -0.45460620522499084 0.023529411764705882
-15.726503372192383 128.0399169921875 -0.826825737953186 0.03137254901960784
-5.912555694580078 119.9425048828125 -0.4475749433040619 0.0392156862745098
-16.07880401611328 128.3448486328125 -0.48723113536834717 0.06274509803921569
-6.098879337310791 120.09642791748047 -0.4500368535518646 0.0196078431372549
-16.091751098632812 128.3718719482422 -0.08285350352525711 0.07058823529411765
-6.29205322265625 120.2562484741211 -0.4467330873012543 0.043137254901960784
-18.87706756591797 130.67807006835938 0.009397788904607296 0.12941176470588237
-6.506425380706787 120.43354034423828 -0.44477957487106323 0.03529411764705882
-18.884920120239258 130.70436096191406 0.5003003478050232 0.10588235294117647
-6.752590656280518 120.6369400024414 -0.4470052123069763 0.01568627450980392
-25.307083129882812 136.01950073242188 0.654854953289032 0.10588235294117647
-7.013194561004639 120.85252380371094 -0.44326841831207275 0.023529411764705882
-19.014385223388672 130.85057067871094 1.4716856479644775 0.011764705882352941
-7.305943965911865 121.09465026855469 -0.4400166869163513 0.20392156862745098
-40.723182678222656 148.8236846923828 2.1531636714935303 0.12156862745098039
-7.681284427642822 121.40428161621094 -0.4561110734939575 0.03137254901960784
-40.75214767456055 148.89390563964844 3.300421953201294 0.17647058823529413
-8.072091102600098 121.72728729248047 -0.45746225118637085 0.0196078431372549
-8.531842231750488 122.10713195800781 -0.4626774489879608 0.011764705882352941
-9.113792419433594 122.5873794555664 -0.48300784826278687 0.01568627450980392
-9.760035514831543 123.12127685546875 -0.49101337790489197 0.01568627450980392
-10.641629219055176 123.84846496582031 -0.5303018689155579 0.011764705882352941
-5.445581912994385 119.57099914550781 -0.4516533613204956 0.01568627450980392
-11.763072967529297 124.82145690917969 -0.5856935381889343 0.043137254901960784
-5.582583904266357 119.68518829345703 -0.44646957516670227 0.01568627450980392
-13.533885955810547 126.28923797607422 -0.7209634184837341 1.0
-5.745993137359619 119.82083892822266 -0.4539870619773865 0.0196078431372549
-15.712397575378418 128.09715270996094 -0.832524836063385 0.03137254901960784
-5.904140949249268 119.95265197753906 -0.4479840397834778 0.0392156862745098
-16.02562141418457 128.37171936035156 -0.4857412874698639 0.023529411764705882
-6.081696510314941 120.10049438476562 -0.4449077248573303 0.023529411764705882
-18.8675537109375 130.7360382080078 -0.4865749776363373 0.10588235294117647
-6.284047603607178 120.26870727539062 -0.44807565212249756 0.03137254901960784
-18.88102912902832 130.76693725585938 0.0021607899107038975 0.12156862745098039
-6.496467590332031 120.44554901123047 -0.44526365399360657 0.0392156862745098
-18.888927459716797 130.7933349609375 0.49446165561676025 0.10980392156862745
-6.7391438484191895 120.64741516113281 -0.4459182620048523 0.01568627450980392
-25.15449333190918 136.0125274658203 0.6568818092346191 0.10588235294117647
-7.00335693359375 120.86727905273438 -0.44457489252090454 0.023529411764705882
-18.976593017578125 130.90554809570312 1.4695231914520264 0.011764705882352941
-7.292459011077881 121.10798645019531 -0.43988656997680664 0.16470588235294117
-19.308469772338867 131.2017059326172 1.9672141075134277 0.023529411764705882
-7.668272972106934 121.41996765136719 -0.4567435383796692 0.03529411764705882
-40.7408332824707 149.0860595703125 3.2990059852600098 0.1803921568627451
-8.055119514465332 121.7417984008789 -0.45688918232917786 0.0196078431372549
-8.500317573547363 122.1121826171875 -0.45700106024742126 0.011764705882352941
-9.089601516723633 122.6014633178711 -0.48112913966178894 0.01568627450980392
-9.720625877380371 123.12628936767578 -0.48499807715415955 0.011764705882352941
-10.610372543334961 123.86477661132812 -0.5281688570976257 0.011764705882352941
-5.439238548278809 119.58122253417969 -0.4531102180480957 0.01568627450980392
-11.71080207824707 124.82904815673828 -0.5796490907669067 0.054901960784313725
-5.570575714111328 119.69160461425781 -0.44371160864830017 0.01568627450980392
-13.496317863464355 126.31888580322266 -0.7206223011016846 1.0
-5.737512588500977 119.83099365234375 -0.45439597964286804 0.0196078431372549
-15.676389694213867 128.14028930664062 -0.8342611193656921 0.03137254901960784
-5.895223617553711 119.96333312988281 -0.44841399788856506 0.0392156862745098
-17.717979431152344 129.8521270751953 -0.7885637283325195 0.01568627450980392
-6.0791730880737305 120.11734008789062 -0.44999703764915466 0.027450980392156862
-18.86716651916504 130.8264617919922 -0.4950937032699585 0.10588235294117647
-6.274081707000732 120.28064727783203 -0.44855621457099915 0.03137254901960784
-18.880693435668945 130.8574981689453 -0.005019971635192633 0.13725490196078433
-6.490134239196777 120.46161651611328 -0.44830411672592163 0.047058823529411764
-18.8840389251709 130.8801727294922 0.4890124797821045 0.10980392156862745
-6.727921009063721 120.66085815429688 -0.44645941257476807 0.01568627450980392
-25.00658416748047 136.0150909423828 0.6583861112594604 0.10588235294117647
-6.991405010223389 120.88159942626953 -0.4451512098312378 0.023529411764705882
-18.996055603027344 131.01329040527344 1.4659322500228882 0.011764705882352941
-7.273925304412842 121.11853790283203 -0.43763938546180725 0.18823529411764706
-40.72356033325195 149.23907470703125 2.1450226306915283 0.12156862745098039
-7.648655414581299 121.43170928955078 -0.45472195744514465 0.03137254901960784
-40.747642517089844 149.3056182861328 3.298269271850586 0.1803921568627451
-8.032922744750977 121.75357818603516 -0.45446690917015076 0.023529411764705882
-8.496055603027344 122.14116668701172 -0.46244463324546814 0.011764705882352941
-9.067425727844238 122.61901092529297 -0.4803672432899475 0.01568627450980392
-9.719117164611816 123.16439056396484 -0.49186187982559204 0.01568627450980392
-10.586956977844238 123.88978576660156 -0.5287768840789795 0.011764705882352941
-5.420219421386719 119.58038330078125 -0.44366592168807983 0.01568627450980392
-11.677969932556152 124.849853515625 -0.5783678293228149 0.054901960784313725
-5.573531150817871 119.70925903320312 -0.4524647295475006 0.01568627450980392
-13.42851448059082 126.32005310058594 -0.7126861214637756 1.0
-5.726766586303711 119.83841705322266 -0.4527640640735626 0.0196078431372549
-15.680057525634766 128.2126922607422 -0.8436970114707947 0.043137254901960784
-5.884028911590576 119.9712142944336 -0.44688284397125244 0.03529411764705882
-17.667713165283203 129.890380859375 -0.788598895072937 0.03529411764705882
-6.067461967468262 120.12577056884766 -0.44857123494148254 0.027450980392156862
-18.868732452392578 130.91419982910156 -0.5035017132759094 0.10980392156862745
-6.261826992034912 120.28965759277344 -0.44723767042160034 0.027450980392156862
-18.880786895751953 130.94410705566406 -0.011916310526430607 0.12156862745098039
-6.47868537902832 120.47242736816406 -0.4479406476020813 0.043137254901960784
-18.89335823059082 130.9745635986328 0.48266083002090454 0.12156862745098039
-6.71724796295166 120.6735610961914 -0.4469698965549469 0.0196078431372549
-24.8942813873291 136.04000854492188 0.658391535282135 0.050980392156862744
-6.977179050445557 120.89277648925781 -0.44417738914489746 0.023529411764705882
-27.25592613220215 138.05564880371094 1.278865933418274 0.058823529411764705
-7.263257026672363 121.1341323852539 -0.43893444538116455 0.17647058823529413
-40.71977996826172 149.43943786621094 2.1410322189331055 0.12156862745098039
-7.6370110511779785 121.44849395751953 -0.4560200572013855 0.03137254901960784
-40.768165588378906 149.5266876220703 3.298145294189453 0.1803921568627451
-8.018814086914062 121.77037048339844 -0.45514175295829773 0.03529411764705882
-8.47630500793457 122.15575408935547 -0.46142667531967163 0.011764705882352941
-9.046143531799316 122.63536071777344 -0.47955602407455444 0.01568627450980392
-9.690126419067383 123.17780303955078 -0.4892911911010742 0.01568627450980392
-10.54963207244873 123.90088653564453 -0.5248356461524963 0.011764705882352941
-5.409040927886963 119.58580780029297 -0.4407464563846588 0.01568627450980392
-11.639090538024902 124.86548614501953 -0.575465977191925 0.054901960784313725
-5.5658488273620605 119.71834564208984 -0.4528293311595917 0.01568627450980392
-13.37287425994873 126.33099365234375 -0.7075973153114319 1.0
-5.722687721252441 119.85125732421875 -0.4561748802661896 0.0196078431372549
-15.687936782836914 128.28904724121094 -0.8540725708007812 0.043137254901960784
-5.876877307891846 119.98238372802734 -0.44825479388237 0.03529411764705882
-17.624940872192383 129.934814453125 -0.7899532318115234 0.03529411764705882
-6.063948154449463 120.14089965820312 -0.45270785689353943 0.027450980392156862
-18.87294578552246 131.00465393066406 -0.5123519897460938 0.10980392156862745
-6.252320766448975 120.3009033203125 -0.4476888179779053 0.027450980392156862
-18.89115333557129 131.0398406982422 -0.020030371844768524 0.12549019607843137
-6.461607933044434 120.47858428955078 -0.4441976249217987 0.0392156862745098
-18.893095016479492 131.06143188476562 0.4770664870738983 0.10980392156862745
-6.709360599517822 120.68856048583984 -0.44908154010772705 0.01568627450980392
-24.78662109375 136.06829833984375 0.6581799387931824 0.023529411764705882
-6.968629360198975 120.90861511230469 -0.44623634219169617 0.023529411764705882
-24.6904354095459 136.0137176513672 1.3319576978683472 0.0392156862745098
-7.248220920562744 121.14612579345703 -0.43807974457740784 0.16470588235294117
-40.72730255126953 149.6504364013672 2.1371371746063232 0.12156862745098039
-7.622411251068115 121.46284484863281 -0.4559723436832428 0.03529411764705882
-40.77701187133789 149.7391357421875 3.2975988388061523 0.1803921568627451
-8.003190994262695 121.78590393066406 -0.45518583059310913 0.03529411764705882
-8.457990646362305 122.1714859008789 -0.46098870038986206 0.011764705882352941
-9.029257774353027 122.65532684326172 -0.4803573489189148 0.01568627450980392
-9.66409683227539 123.1935806274414 -0.4877025783061981 0.01568627450980392
-10.525771141052246 123.92306518554688 -0.5249277353286743 0.011764705882352941
-5.4095330238342285 119.60076141357422 -0.44762006402015686 0.01568627450980392
-11.597210884094238 124.87843322753906 -0.571748673915863 0.054901960784313725
-5.555507183074951 119.7252426147461 -0.4510946273803711 0.01568627450980392
-13.32328987121582 126.34675598144531 -0.7039282321929932 1.0
-5.713226318359375 119.8597183227539 -0.45554855465888977 0.023529411764705882
-15.687921524047852 128.35916137695312 -0.8628900647163391 0.043137254901960784
-5.868337631225586 119.99241638183594 -0.4486568868160248 0.03137254901960784
-17.562374114990234 129.96246337890625 -0.7878403067588806 0.03529411764705882
-6.04671573638916 120.14474487304688 -0.44756776094436646 0.027450980392156862
-18.869171142578125 131.08883666992188 -0.5201056003570557 0.10980392156862745
-6.24139928817749 120.31096649169922 -0.4472517669200897 0.027450980392156862
-18.885892868041992 131.1228790283203 -0.02641124837100506 0.15294117647058825
-6.451509475708008 120.49044799804688 -0.4446731209754944 0.03137254901960784
-18.886367797851562 131.14324951171875 0.47197872400283813 0.10196078431372549
-6.6957831382751465 120.69886016845703 -0.44798460602760315 0.01568627450980392
-19.00875473022461 131.26724243164062 0.9593293070793152 0.043137254901960784
-6.960022449493408 120.9244384765625 -0.4482937455177307 0.023529411764705882
-18.99614906311035 131.2764129638672 1.4568692445755005 0.011764705882352941
-7.224550724029541 121.15089416503906 -0.4329261779785156 0.13333333333333333
-40.75973892211914 149.8838653564453 2.133443593978882 0.12156862745098039
-7.606325626373291 121.47593688964844 -0.45524919033050537 0.03529411764705882
-40.76971435546875 149.93894958496094 3.2964580059051514 0.1843137254901961
-7.990437984466553 121.80381774902344 -0.4564831256866455 0.0392156862745098
-8.4440336227417 122.19083404541016 -0.4622989296913147 0.011764705882352941
-8.99755859375 122.66285705566406 -0.4757632613182068 0.011764705882352941
-9.655842781066895 123.22420501708984 -0.49204084277153015 0.01568627450980392
-10.49588680267334 123.94013977050781 -0.5232179164886475 0.011764705882352941
-5.399604797363281 119.60719299316406 -0.44578611850738525 0.01568627450980392
-11.553841590881348 124.88992309570312 -0.5676184296607971 0.050980392156862744
-5.534654140472412 119.72341918945312 -0.4409651458263397 0.01568627450980392
-13.252717018127441 126.34446716308594 -0.6952330470085144 1.0
-5.697093963623047 119.86262512207031 -0.44987398386001587 0.0392156862745098
-15.686079978942871 128.42811584472656 -0.8713971376419067 0.043137254901960784
-5.861111640930176 120.0035400390625 -0.45002657175064087 0.027450980392156862
-17.50128746032715 129.99111938476562 -0.7859802842140198 0.01568627450980392
-6.039026737213135 120.15644836425781 -0.4489184617996216 0.03529411764705882
-18.86955451965332 131.177001953125 -0.5285214781761169 0.10980392156862745
-6.2304487228393555 120.32099914550781 -0.44681257009506226 0.027450980392156862
-18.887836456298828 131.21250915527344 -0.03366348147392273 0.12941176470588237
-6.445547103881836 120.50577545166016 -0.4476807713508606 0.03137254901960784
-18.898990631103516 131.24203491210938 0.46523410081863403 0.11372549019607843
-6.683584690093994 120.71028900146484 -0.4476868510246277 0.01568627450980392
-19.008960723876953 131.35609436035156 0.9549328088760376 0.00784313725490196
-6.945683479309082 120.93549346923828 -0.4473125636577606 0.0196078431372549
-24.407506942749023 136.00942993164062 1.3302229642868042 0.0392156862745098
-7.222352027893066 121.17355346679688 -0.43850991129875183 0.18823529411764706
-40.76528549194336 150.09567260742188 2.129530191421509 0.12156862745098039
-7.5945305824279785 121.49259948730469 -0.4565400183200836 0.03137254901960784
-40.78879165649414 150.1625213623047 3.296365261077881 0.1843137254901961
-7.973265171051025 121.81803131103516 -0.4558929204940796 0.03529411764705882
-8.425622940063477 122.20645141601562 -0.46185389161109924 0.011764705882352941
-8.97028636932373 122.6739730834961 -0.4727804660797119 0.011764705882352941
-45.290096282958984 154.19482421875 7.4195051193237305 0.1450980392156863
-9.620829582214355 123.2323226928711 -0.48747631907463074 0.01568627450980392
-10.482328414916992 123.970947265625 -0.5264462232589722 0.011764705882352941
-5.389664649963379 119.61358642578125 -0.44394952058792114 0.01568627450980392
-11.513473510742188 124.90375518798828 -0.5642862915992737 0.043137254901960784
-5.5360894203186035 119.74000549316406 -0.448667973279953 0.01568627450980392
-13.200215339660645 126.3571548461914 -0.6908226609230042 1.0
-5.690256118774414 119.87320709228516 -0.4512617588043213 0.03529411764705882
-15.688441276550293 128.5010223388672 -0.8808437585830688 0.043137254901960784
-5.853847980499268 120.0146484375 -0.45139455795288086 0.03137254901960784
-17.452207565307617 130.02984619140625 -0.7862380146980286 0.03529411764705882
-6.021790027618408 120.16016387939453 -0.443771630525589 0.0392156862745098
-18.87708854675293 131.27178955078125 -0.538041353225708 0.10980392156862745
-6.224965572357178 120.3355941772461 -0.44991764426231384 0.03137254901960784
-18.89089012145996 131.30355834960938 -0.0410923957824707 0.12941176470588237
-6.4339752197265625 120.51641845703125 -0.44730809330940247 0.03529411764705882
-18.900571823120117 131.3319091796875 0.4593772292137146 0.11372549019607843
-6.661545753479004 120.71340942382812 -0.44177111983299255 0.011764705882352941
-19.028444290161133 131.4620361328125 0.9494782090187073 0.00784313725490196
-6.928491592407227 120.94410705566406 -0.44480934739112854 0.01568627450980392
-24.25958251953125 136.00033569335938 1.3295612335205078 0.0392156862745098
-7.202937602996826 121.18177795410156 -0.43549731373786926 0.1411764705882353
-40.75930404663086 150.2986602783203 2.1255273818969727 0.12156862745098039
-7.578367233276367 121.50558471679688 -0.4558107852935791 0.03529411764705882
-40.747928619384766 150.33547973632812 3.293989419937134 0.1843137254901961
-7.957507133483887 121.83340454101562 -0.45592740178108215 0.03529411764705882
-8.391133308410645 122.20838165283203 -0.45497623085975647 0.011764705882352941
-8.954751014709473 122.69495391845703 -0.47410815954208374 0.011764705882352941
-9.600592613220215 123.2528305053711 -0.48785102367401123 0.01568627450980392
-10.456791877746582 123.99162292480469 -0.5260748863220215 0.011764705882352941
-5.388306617736816 119.6279525756836 -0.4497525691986084 0.01568627450980392
-11.470284461975098 124.91767120361328 -0.5606023669242859 0.043137254901960784
-5.518745422363281 119.74181365966797 -0.4416995346546173 0.01568627450980392
-13.149131774902344 126.3740005493164 -0.6871908903121948 1.0
-5.682924747467041 119.88428497314453 -0.4526694715023041 0.0392156862745098
-15.694474220275879 128.58148193359375 -0.8916349411010742 0.047058823529411764
-5.843386650085449 120.02404022216797 -0.45084476470947266 0.03529411764705882
-17.38429069519043 130.0567169189453 -0.7836554050445557 0.01568627450980392
-6.017602920532227 120.1758041381836 -0.44792571663856506 0.03137254901960784
-18.87570571899414 131.3643798828125 -0.5467959642410278 0.11372549019607843
-6.2093000411987305 120.34271240234375 -0.44683876633644104 0.027450980392156862
-18.891067504882812 131.39759826660156 -0.0486372709274292 0.12941176470588237
-6.421803951263428 120.5276870727539 -0.44695886969566345 0.03529411764705882
-18.89777374267578 131.4234619140625 0.45353248715400696 0.11372549019607843
-6.66268253326416 120.73725891113281 -0.4495185613632202 0.01568627450980392
-19.002689361572266 131.534423828125 0.9461827278137207 0.00784313725490196
-6.920516014099121 120.9617691040039 -0.4476495385169983 0.0196078431372549
-24.129802703857422 136.0126190185547 1.3282934427261353 0.0392156862745098
-7.192789077758789 121.19917297363281 -0.43752792477607727 0.058823529411764705
-40.59129333496094 150.37330627441406 2.1200504302978516 0.12156862745098039
-7.561429023742676 121.51936340332031 -0.4551124572753906 0.03137254901960784
-40.498680114746094 150.3390655517578 3.283569097518921 0.1843137254901961
-7.936570167541504 121.845947265625 -0.4541091322898865 0.03137254901960784
-8.390726089477539 122.24095153808594 -0.4621613919734955 0.011764705882352941
-8.925025939941406 122.70570373535156 -0.47061869502067566 0.011764705882352941
-9.564534187316895 123.26187133789062 -0.4833206534385681 0.01568627450980392
-10.419672966003418 124.00466918945312 -0.5226030945777893 0.011764705882352941
-5.380880832672119 119.6364517211914 -0.45009124279022217 0.01568627450980392
-11.431403160095215 124.93241882324219 -0.5576565265655518 0.03137254901960784
-5.50966215133667 119.74962615966797 -0.4410049021244049 0.01568627450980392
-13.092211723327637 126.3823471069336 -0.6816807985305786 1.0
-5.672056674957275 119.89148712158203 -0.4510251581668854 0.0392156862745098
-15.69166088104248 128.65077209472656 -0.9001476168632507 0.047058823529411764
-5.833380699157715 120.0328369140625 -0.45027053356170654 0.03137254901960784
