-6.666431903839111 120.18596649169922 -0.4417852759361267 0.0196078431372549
-22.387359619140625 136.13922119140625 1.393528699874878 0.0392156862745098
-6.917786121368408 120.4405517578125 -0.4289112985134125 0.03529411764705882
-36.95069885253906 150.8915252685547 2.2051522731781006 0.12156862745098039
-7.260183334350586 120.78636932373047 -0.4443608522415161 0.01568627450980392
-7.601931571960449 121.13217163085938 -0.438161700963974 0.10196078431372549
-40.962398529052734 155.02476501464844 4.77950382232666 0.21568627450980393
-8.03614616394043 121.57096862792969 -0.4495033919811249 0.011764705882352941
-8.532934188842773 122.07321166992188 -0.4555128216743469 0.0196078431372549
-40.99495315551758 155.13343811035156 7.342521667480469 0.15294117647058825
-9.144198417663574 122.69092559814453 -0.47151386737823486 0.01568627450980392
-9.924861907958984 123.47952270507812 -0.502335786819458 0.011764705882352941
-5.206756591796875 118.72605895996094 -0.43340110778808594 0.01568627450980392
-10.854599952697754 124.47098541259766 -0.531256377696991 0.011764705882352941
-5.337621212005615 118.85923767089844 -0.4335078001022339 0.01568627450980392
-12.277139663696289 125.9161148071289 -0.6191258430480957 1.0
-5.498824119567871 119.02278137207031 -0.45092350244522095 0.01568627450980392
-14.90660572052002 128.58438110351562 -0.8817906379699707 0.023529411764705882
-5.641920566558838 119.16863250732422 -0.4433820843696594 0.0196078431372549
-16.54564094543457 130.25546264648438 -0.7788349390029907 0.03529411764705882
-5.801413059234619 119.33110809326172 -0.43789252638816833 0.023529411764705882
-18.886348724365234 132.64048767089844 -0.6806568503379822 0.08627450980392157
-5.987242698669434 119.5201187133789 -0.4414322078227997 0.027450980392156862
-18.91644859313965 132.68687438964844 -0.1459832638502121 0.1607843137254902
-6.1848578453063965 119.72126007080078 -0.4405750334262848 0.03529411764705882
-18.930938720703125 132.71755981445312 0.39450573921203613 0.09411764705882353
-6.415307998657227 119.95562744140625 -0.4460829198360443 0.0196078431372549
-21.978429794311523 135.82981872558594 0.761933445930481 0.09411764705882353
-6.649855613708496 120.19451141357422 -0.43988314270973206 0.023529411764705882
-22.254703521728516 136.1295928955078 1.3932931423187256 0.0392156862745098
-6.899057865142822 120.44851684570312 -0.42644810676574707 0.027450980392156862
-36.763397216796875 150.9188995361328 2.2011420726776123 0.12156862745098039
-7.241653919219971 120.79669952392578 -0.44277501106262207 0.01568627450980392
-36.321407318115234 150.5017852783203 3.310509443283081 0.16862745098039217
-7.584967136383057 121.14622497558594 -0.43799054622650146 0.08235294117647059
-40.951377868652344 155.25714111328125 4.784490585327148 0.21568627450980393
-8.015091896057129 121.58366394042969 -0.44825345277786255 0.011764705882352941
-8.512991905212402 122.09016418457031 -0.45551684498786926 0.0196078431372549
-40.99872970581055 155.38116455078125 7.357054710388184 0.15294117647058825
-9.118206024169922 122.70565795898438 -0.47014400362968445 0.01568627450980392
-9.892240524291992 123.49251556396484 -0.4998786151409149 0.011764705882352941
-5.198697566986084 118.73395538330078 -0.4336334466934204 0.01568627450980392
-10.839468955993652 124.50774383544922 -0.5352184176445007 0.011764705882352941
-5.330349922180176 118.86874389648438 -0.43479934334754944 0.01568627450980392
-12.225753784179688 125.92511749267578 -0.6146776676177979 1.0
-5.477611064910889 119.01937103271484 -0.44111183285713196 0.01568627450980392
-14.838417053222656 128.5930938720703 -0.8764132857322693 0.023529411764705882
-5.626282691955566 119.17169189453125 -0.43882080912590027 0.0196078431372549
-16.48879623413086 130.28616333007812 -0.7777422070503235 0.01568627450980392
-5.7901997566223145 119.33960723876953 -0.4372541904449463 0.023529411764705882
-18.881851196289062 132.739501953125 -0.6895424723625183 0.08627450980392157
-5.974154472351074 119.52792358398438 -0.4399685263633728 0.027450980392156862
-18.911964416503906 132.78610229492188 -0.1533007174730301 0.1411764705882353
-6.173669815063477 119.73221588134766 -0.4408976137638092 0.03529411764705882
-18.930679321289062 132.82119750976562 0.3883996605873108 0.10980392156862745
-6.395628452301025 119.95951080322266 -0.44162896275520325 0.011764705882352941
-21.869260787963867 135.84164428710938 0.7628149390220642 0.09019607843137255
-6.638484954833984 120.20823669433594 -0.4410054385662079 0.023529411764705882
-22.150259017944336 136.14791870117188 1.3924450874328613 0.03529411764705882
-6.890848636627197 120.4670181274414 -0.42969146370887756 0.027450980392156862
-36.1739387512207 150.53326416015625 2.1928606033325195 0.12156862745098039
-7.232390880584717 120.81632232666016 -0.44587433338165283 0.01568627450980392
-36.12603759765625 150.51686096191406 3.303546905517578 0.16862745098039217
-7.56796407699585 121.16022491455078 -0.4378163516521454 0.09411764705882353
-7.9913225173950195 121.59355163574219 -0.4458366632461548 0.011764705882352941
-8.493001937866211 122.10704803466797 -0.45551741123199463 0.0196078431372549
-41.027706146240234 155.65640258789062 7.3753981590271 0.15294117647058825
-9.097633361816406 122.7258071899414 -0.47073715925216675 0.01568627450980392
-9.860980033874512 123.50675964355469 -0.4978623688220978 0.011764705882352941
-5.186608791351318 118.73868560791016 -0.4306175112724304 0.01568627450980392
-10.798060417175293 124.52070617675781 -0.5319974422454834 0.011764705882352941
-5.326174736022949 118.88231658935547 -0.439243882894516 0.01568627450980392
-12.174074172973633 125.93696594238281 -0.6106246113777161 1.0
-5.476653099060059 119.03717803955078 -0.44843342900276184 0.01568627450980392
-14.777783393859863 128.61349487304688 -0.8732548952102661 0.023529411764705882
-5.6187615394592285 119.18389892578125 -0.44103991985321045 0.01568627450980392
-16.416963577270508 130.3062744140625 -0.7743375301361084 0.01568627450980392
-5.779655456542969 119.34986877441406 -0.4375554025173187 0.023529411764705882
-18.86981773376465 132.83721923828125 -0.6978583931922913 0.08627450980392157
-5.96424674987793 119.5400619506836 -0.4411718249320984 0.027450980392156862
-18.91660499572754 132.90115356445312 -0.16224262118339539 0.1411764705882353
-6.159271240234375 119.74117279052734 -0.43955135345458984 0.03529411764705882
-18.92561149597168 132.9263916015625 0.38233453035354614 0.11372549019607843
-6.383026123046875 119.97177124023438 -0.4419889450073242 0.011764705882352941
-21.735889434814453 135.8347930908203 0.7647934556007385 0.09019607843137255
-6.623757362365723 120.21998596191406 -0.44063201546669006 0.023529411764705882
-22.027090072631836 136.15338134765625 1.3918681144714355 0.03529411764705882
-6.875253200531006 120.4795913696289 -0.42938554286956787 0.027450980392156862
-35.95305252075195 150.53335571289062 2.1884727478027344 0.24313725490196078
-7.211658000946045 120.82598114013672 -0.4436357319355011 0.01568627450980392
-7.552710056304932 121.17771911621094 -0.4389161467552185 0.09411764705882353
-7.977320194244385 121.61518859863281 -0.4480968713760376 0.011764705882352941
-8.474620819091797 122.12762451171875 -0.45661789178848267 0.023529411764705882
-41.03323745727539 155.92312622070312 7.391334056854248 0.14901960784313725
-9.07177734375 122.74285888671875 -0.4698832333087921 0.01568627450980392
-9.835235595703125 123.52909851074219 -0.49811190366744995 0.011764705882352941
-5.183233737945557 118.75129699707031 -0.4351934492588043 0.01568627450980392
-10.773136138916016 124.54753112792969 -0.5331427454948425 0.011764705882352941
-5.312831878662109 118.8857421875 -0.4352974593639374 0.01568627450980392
-12.132353782653809 125.95540618896484 -0.6086486577987671 1.0
-5.465185642242432 119.04346466064453 -0.44667449593544006 0.0196078431372549
-14.7083158493042 128.62020874023438 -0.8675437569618225 0.023529411764705882
-5.610489845275879 119.1943359375 -0.44227564334869385 0.0196078431372549
-16.366933822631836 130.34361267089844 -0.7745419144630432 0.01568627450980392
-5.767146110534668 119.3570327758789 -0.4359874725341797 0.023529411764705882
-18.890653610229492 132.96363830566406 -0.7108787298202515 0.09019607843137255
-5.946079730987549 119.54266357421875 -0.4361661374568939 0.027450980392156862
-18.918046951293945 133.0078582763672 -0.17041805386543274 0.1450980392156863
-6.151832580566406 119.75592803955078 -0.4423971474170685 0.03137254901960784
-18.931276321411133 133.03753662109375 0.3756033480167389 0.11372549019607843
-6.377468109130859 119.98989868164062 -0.4463273584842682 0.01568627450980392
-21.621458053588867 135.8397979736328 0.7660300135612488 0.06666666666666667
-6.611000061035156 120.2323226928711 -0.4409930408000946 0.023529411764705882
-21.874250411987305 136.120361328125 1.3921817541122437 0.03529411764705882
-6.859067440032959 120.49004364013672 -0.4283418655395508 0.03137254901960784
-35.74959945678711 150.5381317138672 2.1844115257263184 0.24313725490196078
-7.19172477722168 120.83477020263672 -0.4413700997829437 0.01568627450980392
-35.72031784057617 150.5400390625 3.289128541946411 0.16862745098039217
-7.536942005157471 121.19296264648438 -0.4393623471260071 0.06274509803921569
-7.952157497406006 121.62355041503906 -0.44509050250053406 0.011764705882352941
-8.449140548706055 122.13886260986328 -0.45446351170539856 0.023529411764705882
-41.029178619384766 156.16787719726562 7.405257225036621 0.14901960784313725
-9.044322967529297 122.75592041015625 -0.4680080711841583 0.01568627450980392
-9.809349060058594 123.5487060546875 -0.49787336587905884 0.011764705882352941
-5.1739182472229 118.75791931152344 -0.4343348741531372 0.01568627450980392
-10.744044303894043 124.5700454711914 -0.5330793857574463 0.011764705882352941
-5.298302173614502 118.88788604736328 -0.43030115962028503 0.01568627450980392
-12.089250564575195 125.97225952148438 -0.606309175491333 1.0
-5.454917907714844 119.05093383789062 -0.4459211528301239 0.01568627450980392
-14.603282928466797 128.589599609375 -0.8537566065788269 0.011764705882352941
-5.607083320617676 119.20974731445312 -0.4473784267902374 0.01568627450980392
-16.146291732788086 130.20370483398438 -0.7420188188552856 0.050980392156862744
-5.764542102813721 119.3742904663086 -0.44182437658309937 0.023529411764705882
-18.8929443359375 133.0717315673828 -0.721072256565094 0.09019607843137255
-5.939215183258057 119.55671691894531 -0.43911758065223694 0.027450980392156862
-18.925891876220703 133.1219024658203 -0.1794518083333969 0.1450980392156863
-6.143069744110107 119.7693862915039 -0.444399356842041 0.03137254901960784
-18.936410903930664 133.14886474609375 0.3688707649707794 0.09803921568627451
-6.360316753387451 119.99620819091797 -0.44346460700035095 0.01568627450980392
-21.521032333374023 135.85870361328125 0.7665009498596191 0.10980392156862745
-6.59562349319458 120.2419662475586 -0.43983739614486694 0.023529411764705882
-21.76886749267578 136.13565063476562 1.391427755355835 0.03529411764705882
-6.846767902374268 120.50445556640625 -0.4294373095035553 0.03137254901960784
-35.56305694580078 150.5592803955078 2.1805617809295654 0.24313725490196078
-7.171784400939941 120.84347534179688 -0.4391012191772461 0.01568627450980392
-7.519805908203125 121.20679473876953 -0.43917953968048096 0.07058823529411765
-7.937653541564941 121.64279174804688 -0.4467359185218811 0.011764705882352941
-8.426331520080566 122.15276336669922 -0.45337897539138794 0.023529411764705882
-41.052825927734375 156.4431915283203 7.423386096954346 0.14901960784313725
-9.02359390258789 122.77584075927734 -0.4685893654823303 0.01568627450980392
-9.791543006896973 123.57662963867188 -0.5003133416175842 0.011764705882352941
-5.164585590362549 118.7645034790039 -0.43347495794296265 0.01568627450980392
-10.69725227355957 124.5740966796875 -0.5277900099754333 0.011764705882352941
-5.296873569488525 118.90338134765625 -0.43682345747947693 0.01568627450980392
-12.03387451171875 125.97615814208984 -0.6007581949234009 1.0
-5.443424224853516 119.05712890625 -0.44415831565856934 0.0196078431372549
-14.430224418640137 128.4871368408203 -0.8244373202323914 0.00784313725490196
-5.591396808624268 119.2126235961914 -0.442808598279953 0.01568627450980392
-16.23506736755371 130.38482666015625 -0.7688533067703247 0.03529411764705882
-5.750737190246582 119.38011932373047 -0.4393269717693329 0.023529411764705882
-18.880971908569336 133.16561889648438 -0.7290877103805542 0.09019607843137255
-5.9310431480407715 119.5694808959961 -0.44118329882621765 0.027450980392156862
-18.926292419433594 133.22897338867188 -0.18762940168380737 0.14901960784313725
-6.129203796386719 119.77760314941406 -0.44302883744239807 0.03137254901960784
-18.94099998474121 133.26040649414062 0.362136572599411 0.10196078431372549
-6.353364944458008 120.01298522949219 -0.4470001757144928 0.01568627450980392
-21.406877517700195 135.86270141601562 0.7677766680717468 0.09019607843137255
-6.586659908294678 120.2582015991211 -0.44246575236320496 0.023529411764705882
-21.635986328125 136.12152099609375 1.3913389444351196 0.03529411764705882
-6.83441686630249 120.51882934570312 -0.4305306673049927 0.027450980392156862
-35.575225830078125 150.78823852539062 2.1788225173950195 0.12156862745098039
-7.158377647399902 120.85888671875 -0.4401805102825165 0.01568627450980392
-7.506584644317627 121.22467041015625 -0.4408729076385498 0.03529411764705882
-7.920424461364746 121.65924835205078 -0.44721469283103943 0.011764705882352941
-8.40616226196289 122.16935729980469 -0.4533650577068329 0.027450980392156862
-41.04499816894531 156.68728637695312 7.437106132507324 0.14901960784313725
-8.996081352233887 122.78871154785156 -0.4667050242424011 0.01568627450980392
-9.768227577209473 123.59889221191406 -0.500961184501648 0.011764705882352941
-5.152443885803223 118.76908111572266 -0.43045157194137573 0.01568627450980392
-10.672032356262207 124.60342407226562 -0.529362142086029 0.01568627450980392
-5.279478073120117 118.90345001220703 -0.4297417104244232 0.01568627450980392
-11.990429878234863 125.99567413330078 -0.5988057851791382 1.0
-5.436220169067383 119.0687255859375 -0.446438193321228 0.0196078431372549
-14.33071231842041 128.4644317626953 -0.8122174143791199 0.00784313725490196
-5.580057621002197 119.2209701538086 -0.4421200156211853 0.0196078431372549
-16.086755752563477 130.3233184814453 -0.7506086230278015 0.054901960784313725
-5.736365795135498 119.38642120361328 -0.43684256076812744 0.023529411764705882
-18.897069931030273 133.29559326171875 -0.7421979904174805 0.09411764705882353
-5.916001319885254 119.57633972167969 -0.4388403594493866 0.027450980392156862
-18.913589477539062 133.32891845703125 -0.19468645751476288 0.12941176470588237
-6.118464946746826 119.79029846191406 -0.44420212507247925 0.03137254901960784
-18.94068145751953 133.37350463867188 0.3554440438747406 0.10196078431372549
-6.3355021476745605 120.01982116699219 -0.44415080547332764 0.01568627450980392
-21.290834426879883 135.87088012695312 0.7689000368118286 0.09019607843137255
-6.571784973144531 120.26976013183594 -0.44208240509033203 0.023529411764705882
-21.54940414428711 136.16232299804688 1.3900099992752075 0.03529411764705882
-6.818668365478516 120.53119659423828 -0.4302143454551697 0.027450980392156862
-35.52939224243164 150.96954345703125 2.1763851642608643 0.12156862745098039
-7.141488552093506 120.87230682373047 -0.4399389922618866 0.01568627450980392
-35.116127014160156 150.56411743164062 3.267828941345215 0.16470588235294117
-7.484530448913574 121.23512268066406 -0.43882912397384644 0.050980392156862744
-40.984127044677734 156.81488037109375 4.824646472930908 0.20784313725490197
-7.90086030960083 121.6751708984375 -0.44713446497917175 0.011764705882352941
-8.384896278381348 122.18687438964844 -0.4533764123916626 0.023529411764705882
-41.06717300415039 156.97894287109375 7.45623254776001 0.1450980392156863
-8.96337890625 122.7983627319336 -0.46337005496025085 0.01568627450980392
-9.739505767822266 123.61808013916016 -0.5002985000610352 0.011764705882352941
-5.147744655609131 118.78043365478516 -0.43393638730049133 0.01568627450980392
-10.640095710754395 124.62275695800781 -0.5284784436225891 0.01568627450980392
-5.275588035583496 118.9164810180664 -0.43416690826416016 0.01568627450980392
-11.931087493896484 125.99481201171875 -0.5921671390533447 1.0
-5.423489093780518 119.0736083984375 -0.4436640441417694 0.0196078431372549
-14.214619636535645 128.4191131591797 -0.7955734729766846 0.00784313725490196
-5.572866439819336 119.23255920410156 -0.44431719183921814 0.023529411764705882
-16.0176944732666 130.33937072753906 -0.7470672130584717 0.050980392156862744
-5.727456569671631 119.39725494384766 -0.4380454123020172 0.023529411764705882
-18.882741928100586 133.38832092285156 -0.7499948143959045 0.09411764705882353
-5.908990859985352 119.59033966064453 -0.44178757071495056 0.027450980392156862
-18.929370880126953 133.4536895751953 -0.20492789149284363 0.15294117647058825
-6.102042198181152 119.79580688476562 -0.44114118814468384 0.03137254901960784
-18.9469051361084 133.48834228515625 0.34845659136772156 0.10196078431372549
-6.323374271392822 120.03125762939453 -0.4444815218448639 0.01568627450980392
-21.175626754760742 135.8723602294922 0.7702955007553101 0.08627450980392157
-6.55759334564209 120.28059387207031 -0.4416770040988922 0.027450980392156862
-21.410066604614258 136.1397705078125 1.3901273012161255 0.03529411764705882
-6.806224346160889 120.54549407958984 -0.4313031733036041 0.027450980392156862
-19.370851516723633 133.9874267578125 2.0072755813598633 0.0196078431372549
-7.121481895446777 120.88081359863281 -0.4376605451107025 0.01568627450980392
-34.90176773071289 150.5518798828125 3.2601680755615234 0.16470588235294117
-7.467274188995361 121.248779296875 -0.4386374056339264 0.027450980392156862
-41.04418182373047 157.13426208496094 4.83583402633667 0.20784313725490197
-7.8822102546691895 121.69011688232422 -0.44702479243278503 0.011764705882352941
-8.367281913757324 122.20613098144531 -0.4544304311275482 0.023529411764705882
-41.0582160949707 157.2252960205078 7.470149517059326 0.1450980392156863
-8.93851089477539 122.81380462646484 -0.46246078610420227 0.01568627450980392
-9.70935344696045 123.63310241699219 -0.49869999289512634 0.011764705882352941
-5.139515399932861 118.78813934326172 -0.4341587424278259 0.01568627450980392
-10.60811996459961 124.6419677734375 -0.5275893807411194 0.01568627450980392
-5.26693058013916 118.92459106445312 -0.4344007670879364 0.01568627450980392
-11.892073631286621 126.01518249511719 -0.5908641815185547 1.0
-5.416723728179932 119.08467864990234 -0.4459269046783447 0.0196078431372549
-14.169281959533691 128.4480438232422 -0.795062243938446 0.00784313725490196
-5.568048477172852 119.24665832519531 -0.4484480023384094 0.023529411764705882
-15.996155738830566 130.4057159423828 -0.7527663111686707 0.054901960784313725
-5.72584867477417 119.41576385498047 -0.444804310798645 0.023529411764705882
-18.889753341674805 133.50433349609375 -0.7612818479537964 0.09411764705882353
-5.89697790145874 119.59913635253906 -0.44119349122047424 0.027450980392156862
-18.92273712158203 133.5554656982422 -0.21241873502731323 0.12941176470588237
-6.093120098114014 119.80913543701172 -0.4431358575820923 0.03529411764705882
-18.953933715820312 133.60482788085938 0.3413423001766205 0.12156862745098039
-6.309950351715088 120.04132080078125 -0.4440097212791443 0.011764705882352941
-21.064695358276367 135.87770080566406 0.7714740633964539 0.08627450980392157
-6.545921802520752 120.2940673828125 -0.4427844285964966 0.023529411764705882
-21.3038330078125 136.15159606933594 1.3894842863082886 0.03529411764705882
-6.795017242431641 120.56111145019531 -0.433104544878006 0.027450980392156862
-19.330162048339844 134.05567932128906 2.005925416946411 0.0196078431372549
-7.110536575317383 120.89881134033203 -0.4400734305381775 0.01568627450980392
-7.452590465545654 121.26513671875 -0.4396960437297821 0.023529411764705882
-41.029109954833984 157.37550354003906 4.841240406036377 0.20392156862745098
-7.862204551696777 121.70361328125 -0.44632911682128906 0.011764705882352941
-8.345637321472168 122.22112274169922 -0.4538683295249939 0.023529411764705882
-41.072509765625 157.49819946289062 7.487663269042969 0.1450980392156863
-8.912281036376953 122.82775115966797 -0.4610547423362732 0.01568627450980392
-9.676506042480469 123.64517974853516 -0.4962007701396942 0.011764705882352941
-5.133575439453125 118.79825592041016 -0.43655410408973694 0.01568627450980392
-10.569409370422363 124.65391540527344 -0.5246843099594116 0.01568627450980392
-5.2582478523254395 118.93267059326172 -0.4346332252025604 0.01568627450980392
-11.836895942687988 126.01814270019531 -0.5852761268615723 1.0
-5.405157566070557 119.0907211303711 -0.44415703415870667 0.0196078431372549
-14.090169906616211 128.44070434570312 -0.7867742776870728 0.00784313725490196
-5.5511250495910645 119.2480697631836 -0.44290173053741455 0.0196078431372549
-15.936469078063965 130.43148803710938 -0.7510566711425781 0.054901960784313725
-5.710745334625244 119.42013549804688 -0.4413723051548004 0.027450980392156862
-18.88263702392578 133.60601806640625 -0.7703867554664612 0.09411764705882353
-5.884941101074219 119.6078872680664 -0.44059789180755615 0.027450980392156862
-18.92783546447754 133.6704864501953 -0.22145920991897583 0.13333333333333333
-6.0829010009765625 119.82112121582031 -0.44428592920303345 0.03529411764705882
-18.9454345703125 133.7054443359375 0.3356073796749115 0.10588235294117647
-6.291465759277344 120.04600524902344 -0.44033342599868774 0.011764705882352941
-20.959354400634766 135.88839721679688 0.7723549008369446 0.08627450980392157
-6.5291242599487305 120.30211639404297 -0.44085872173309326 0.023529411764705882
-21.182735443115234 136.14683532714844 1.3892208337783813 0.03529411764705882
-6.7735066413879395 120.5658187866211 -0.42918670177459717 0.023529411764705882
-7.090483665466309 120.90718078613281 -0.43778884410858154 0.01568627450980392
-34.5028076171875 150.55519104003906 3.246227264404297 0.1607843137254902
-7.443053722381592 121.2869873046875 -0.4432598948478699 0.03137254901960784
-41.03460693359375 157.6405029296875 4.848356246948242 0.20392156862745098
-7.840856552124023 121.71564483642578 -0.44504743814468384 0.011764705882352941
-8.326589584350586 122.23885345458984 -0.454378217458725 0.027450980392156862
-8.887350082397461 122.843017578125 -0.4601367712020874 0.01568627450980392
-9.650313377380371 123.66423034667969 -0.4959351718425751 0.011764705882352941
-5.1264424324035645 118.80714416503906 -0.4378615617752075 0.01568627450980392
-10.538702964782715 124.67430877685547 -0.5241857767105103 0.01568627450980392
-5.2483696937561035 118.93949127197266 -0.4338163137435913 0.01568627450980392
-11.801878929138184 126.04249572753906 -0.5850284099578857 0.00784313725490196
-5.395950794219971 119.09923553466797 -0.44440117478370667 0.0196078431372549
-13.993749618530273 128.41416931152344 -0.7744307518005371 0.00784313725490196
-5.542623996734619 119.25831604003906 -0.4441266655921936 0.01568627450980392
-15.919876098632812 130.5035400390625 -0.7578040361404419 0.07450980392156863
-5.701718330383301 119.43090057373047 -0.4425704777240753 0.027450980392156862
-18.86963653564453 133.70199584960938 -0.7786167860031128 0.07058823529411765
-5.874109268188477 119.61790466308594 -0.44088512659072876 0.027450980392156862
-18.93372344970703 133.7871856689453 -0.2306734025478363 0.1568627450980392
-6.065192222595215 119.82514953613281 -0.44037461280822754 0.03529411764705882
-18.954072952270508 133.8252410888672 0.328239381313324 0.10588235294117647
-6.284271717071533 120.0626449584961 -0.44385990500450134 0.011764705882352941
-20.83378791809082 135.8765869140625 0.7744445204734802 0.06274509803921569
-6.518640995025635 120.31684875488281 -0.4427196681499481 0.023529411764705882
-19.068492889404297 133.98109436035156 1.4374276399612427 0.050980392156862744
-6.766046524047852 120.58544158935547 -0.4331277310848236 0.027450980392156862
-19.380823135375977 134.3360595703125 2.0045976638793945 0.0196078431372549
-7.079428672790527 120.92510223388672 -0.44019708037376404 0.01568627450980392
-34.320709228515625 150.5738525390625 3.2400617599487305 0.1607843137254902
-7.426943778991699 121.30188751220703 -0.4436871111392975 0.023529411764705882
-41.06991195678711 157.93972778320312 4.857921123504639 0.2
-7.823399066925049 121.73179626464844 -0.4455104172229767 0.011764705882352941
-8.30486011505127 122.25370025634766 -0.45380911231040955 0.023529411764705882
-8.875593185424805 122.87237548828125 -0.4641449749469757 0.01568627450980392
-9.617430686950684 123.67606353759766 -0.49342530965805054 0.011764705882352941
-5.109622478485107 118.806640625 -0.4304792582988739 0.01568627450980392
-10.505131721496582 124.69451904296875 -0.5233185291290283 0.01568627450980392
-5.241485118865967 118.950439453125 -0.4361540973186493 0.01568627450980392
-11.750395774841309 126.0523910522461 -0.580895185470581 0.00784313725490196
-5.38974666595459 119.11197662353516 -0.44768190383911133 0.0196078431372549
-13.91556167602539 128.410888671875 -0.7667914628982544 0.00784313725490196
-5.53354549407959 119.26903533935547 -0.4453645944595337 0.01568627450980392
-15.889701843261719 130.5662841796875 -0.7624970078468323 0.07450980392156863
-5.688450336456299 119.43827819824219 -0.4410020411014557 0.027450980392156862
-18.84234619140625 133.78916931152344 -0.7851759791374207 0.023529411764705882
-5.861418724060059 119.62713623046875 -0.4403010904788971 0.027450980392156862
-18.929203033447266 133.8995819091797 -0.23910780251026154 0.13725490196078433
-6.054274082183838 119.837646484375 -0.4415372908115387 0.03529411764705882
-18.938772201538086 133.92605590820312 0.322675883769989 0.09019607843137255
-6.272577285766602 120.07588195800781 -0.44500061869621277 0.01568627450980392
-20.761789321899414 135.92918395996094 0.7731281518936157 0.08627450980392157
-6.502333164215088 120.32681274414062 -0.44156578183174133 0.027450980392156862
-20.771528244018555 135.95750427246094 1.3927363157272339 0.03137254901960784
-6.7488274574279785 120.59619140625 -0.432083398103714 0.027450980392156862
-7.064905643463135 120.94100952148438 -0.44128331542015076 0.01568627450980392
-34.11528778076172 150.57801818847656 3.23298978805542 0.1607843137254902
-7.412472248077393 121.32034301757812 -0.4453895390033722 0.023529411764705882
-7.803616523742676 121.74737548828125 -0.44541308283805847 0.01568627450980392
-8.285953521728516 122.27369689941406 -0.4548780620098114 0.027450980392156862
-8.836214065551758 122.87434387207031 -0.45831891894340515 0.01568627450980392
-9.59645938873291 123.70327758789062 -0.49542444944381714 0.011764705882352941
-5.10291862487793 118.8150405883789 -0.4317711591720581 0.01568627450980392
-10.461250305175781 124.69744873046875 -0.5183433294296265 0.01568627450980392
-5.229724407196045 118.95426177978516 -0.43322521448135376 0.01568627450980392
-11.709053039550781 126.066162109375 -0.5784474611282349 0.00784313725490196
-5.377458572387695 119.11618041992188 -0.4448848068714142 0.01568627450980392
-13.827118873596191 128.38731384277344 -0.7556043267250061 0.00784313725490196
-5.524322509765625 119.27745819091797 -0.4456046223640442 0.0196078431372549
-15.850921630859375 130.6097412109375 -0.7644050121307373 0.054901960784313725
-5.673901081085205 119.44196319580078 -0.4375482201576233 0.01568627450980392
-18.775226593017578 133.8208465576172 -0.784132182598114 0.023529411764705882
-5.848693370819092 119.63389587402344 -0.4387979209423065 0.027450980392156862
-18.938398361206055 134.0153045654297 -0.2484159767627716 0.1411764705882353
-6.04336404800415 119.84761047363281 -0.44182121753692627 0.03529411764705882
-18.945348739624023 134.0389862060547 0.31576427817344666 0.09019607843137255
-6.258469104766846 120.08380126953125 -0.44370102882385254 0.0196078431372549
-20.758480072021484 136.0431671142578 0.7683418393135071 0.08627450980392157
-6.492484092712402 120.3408203125 -0.4434037506580353 0.027450980392156862
-20.81266212463379 136.12033081054688 1.388756513595581 0.07058823529411765
-6.736934185028076 120.60958099365234 -0.4331408143043518 0.027450980392156862
-7.049443244934082 120.95257568359375 -0.44098126888275146 0.01568627450980392
-7.395873546600342 121.33293151855469 -0.445160835981369 0.023529411764705882
-7.785741806030273 121.7611083984375 -0.44526153802871704 0.01568627450980392
-8.262594223022461 122.28459167480469 -0.4531978368759155 0.027450980392156862
-8.816288948059082 122.89253997802734 -0.45883744955062866 0.01568627450980392
-9.562201499938965 123.71080780029297 -0.49197378754615784 0.011764705882352941
-5.0986809730529785 118.82794952392578 -0.4363488554954529 0.01568627450980392
-10.421041488647461 124.71012878417969 -0.5154505372047424 0.01568627450980392
-5.222774505615234 118.96517181396484 -0.4355607032775879 0.01568627450980392
-11.644370079040527 126.06108093261719 -0.5707268118858337 0.00784313725490196
-5.366482734680176 119.12380981445312 -0.44412893056869507 0.0196078431372549
-13.743964195251465 128.37741088867188 -0.7466911673545837 0.00784313725490196
-5.512796401977539 119.28555297851562 -0.44490286707878113 0.0196078431372549
-15.866947174072266 130.72369384765625 -0.7783612012863159 0.054901960784313725
-5.666623592376709 119.45574951171875 -0.44060924649238586 0.01568627450980392
-18.705894470214844 133.86228942871094 -0.7838926315307617 0.023529411764705882
-5.843250751495361 119.65094757080078 -0.44352251291275024 0.03137254901960784
-18.936767578125 134.13247680664062 -0.2573692202568054 0.1411764705882353
-6.032362461090088 119.86004638671875 -0.4429800808429718 0.03529411764705882
-18.945127487182617 134.15777587890625 0.30869048833847046 0.09019607843137255
-6.23801326751709 120.08751678466797 -0.4392305314540863 0.027450980392156862
-20.76915740966797 136.18728637695312 0.7621012926101685 0.08627450980392157
-6.4748616218566895 120.34931182861328 -0.4414864182472229 0.027450980392156862
-20.7332820892334 136.1653594970703 1.387389063835144 0.07058823529411765
-6.717126369476318 120.61746978759766 -0.43066081404685974 0.0196078431372549
-40.936710357666016 158.5259246826172 2.217745304107666 0.09803921568627451
-7.032273769378662 120.96561431884766 -0.44071972370147705 0.01568627450980392
-7.381280422210693 121.35130310058594 -0.4468577802181244 0.023529411764705882
-33.82753372192383 150.72515869140625 4.304399013519287 0.2235294117647059
-7.765871524810791 121.77655792236328 -0.44515734910964966 0.01568627450980392
-8.239677429199219 122.30018615722656 -0.45264503359794617 0.03137254901960784
-8.79526138305664 122.91423797607422 -0.45990657806396484 0.01568627450980392
-9.537147521972656 123.7335433959961 -0.49261972308158875 0.011764705882352941
-5.092575550079346 118.83797454833984 -0.43873879313468933 0.01568627450980392
-10.387585639953613 124.72710418701172 -0.5141232013702393 0.01568627450980392
-5.216270446777344 118.97561645507812 -0.43788227438926697 0.01568627450980392
-11.605315208435059 126.08039855957031 -0.5693787932395935 0.00784313725490196
-5.356003284454346 119.13093566894531 -0.4433582127094269 0.0196078431372549
-13.669753074645996 128.37249755859375 -0.7392652034759521 0.00784313725490196
-5.499427318572998 119.29054260253906 -0.44224902987480164 0.0196078431372549
-15.835747718811035 130.78118896484375 -0.7824470400810242 0.054901960784313725
-5.6562700271606445 119.46508026123047 -0.4408735930919647 0.0196078431372549
-18.654207229614258 133.91693115234375 -0.785971462726593 0.023529411764705882
-5.828649520874023 119.65686798095703 -0.441145658493042 0.027450980392156862
-18.945688247680664 134.25588989257812 -0.2672795355319977 0.1411764705882353
-6.019514083862305 119.86918640136719 -0.4424331784248352 0.03137254901960784
-18.950119018554688 134.2769012451172 0.30144360661506653 0.09019607843137255
-6.230618476867676 120.10405731201172 -0.44275009632110596 0.023529411764705882
-20.68096923828125 136.21568298339844 0.7620152831077576 0.08627450980392157
-6.465442180633545 120.36528015136719 -0.444097638130188 0.023529411764705882
-21.158723831176758 136.7645263671875 1.3735820055007935 0.03529411764705882
-6.706897735595703 120.63423919677734 -0.4331640899181366 0.023529411764705882
-7.018444061279297 120.98062133789062 -0.44177669286727905 0.01568627450980392
-7.36368989944458 121.36460876464844 -0.44664686918258667 0.023529411764705882
-7.7482218742370605 121.79247283935547 -0.4456079602241516 0.01568627450980392
-8.221677780151367 122.31900787353516 -0.4536761939525604 0.03137254901960784
-8.767521858215332 122.92620086669922 -0.457981139421463 0.01568627450980392
-9.505485534667969 123.74634552001953 -0.49053704738616943 0.011764705882352941
-5.08303165435791 118.84426879882812 -0.4378632605075836 0.01568627450980392
-10.355414390563965 124.74540710449219 -0.5131930708885193 0.01568627450980392
-5.206277847290039 118.98228454589844 -0.4370572566986084 0.01568627450980392
-11.554388046264648 126.08639526367188 -0.5648089051246643 0.00784313725490196
-5.350164890289307 119.14311981201172 -0.4466201364994049 0.0196078431372549
-13.586444854736328 128.35696411132812 -0.7296462059020996 0.00784313725490196
-5.491952419281006 119.30193328857422 -0.44443440437316895 0.01568627450980392
-15.795052528381348 130.8282928466797 -0.7846712470054626 0.054901960784313725
-5.643501281738281 119.47176361083984 -0.4392819106578827 0.023529411764705882
-18.575794219970703 133.94180297851562 -0.7836583852767944 0.023529411764705882
-5.8176655769348145 119.66670989990234 -0.4414234757423401 0.027450980392156862
-18.946020126342773 134.37062072753906 -0.276154100894928 0.11764705882352941
-6.007862091064453 119.87962341308594 -0.44272786378860474 0.043137254901960784
-18.970502853393555 134.41407775878906 0.29267990589141846 0.10980392156862745
-6.224387168884277 120.12194061279297 -0.44706958532333374 0.01568627450980392
-20.560815811157227 136.2079620361328 0.7638636231422424 0.08627450980392157
-6.450987815856934 120.37574768066406 -0.4436732828617096 0.023529411764705882
-21.175498962402344 136.91326904296875 1.3699030876159668 0.03529411764705882
-6.69409704208374 120.6482162475586 -0.4342348277568817 0.023529411764705882
-33.7415657043457 151.00474548339844 2.1423215866088867 0.12156862745098039
-7.004562854766846 120.9955825805664 -0.44283127784729004 0.01568627450980392
-33.354000091552734 150.60081481933594 3.207170009613037 0.1568627450980392
-7.354979991912842 121.38771057128906 -0.45082592964172363 0.027450980392156862
-7.727960109710693 121.80548858642578 -0.44488877058029175 0.01568627450980392
-8.201033592224121 122.33492279052734 -0.4536270201206207 0.027450980392156862
-8.743663787841797 122.94236755371094 -0.45753151178359985 0.01568627450980392
-9.476423263549805 123.76190948486328 -0.4893460273742676 0.011764705882352941
-5.074132442474365 118.85218811035156 -0.4380861520767212 0.01568627450980392
-10.31778621673584 124.76054382324219 -0.5110860466957092 0.01568627450980392
-5.198065757751465 118.99187469482422 -0.4383403956890106 0.01568627450980392
-11.488670349121094 126.07903289794922 -0.5566995143890381 0.00784313725490196
-5.340272903442383 119.15192413330078 -0.4468679130077362 0.0196078431372549
-13.522266387939453 128.36648559570312 -0.7250514030456543 0.00784313725490196
-5.478009223937988 119.30731964111328 -0.4417901039123535 0.0196078431372549
-15.771408081054688 130.89976501464844 -0.7909326553344727 0.03529411764705882
-5.6301422119140625 119.47891235351562 -0.4377027451992035 0.023529411764705882
-18.50221061706543 133.97802734375 -0.7827251553535461 0.023529411764705882
-5.807238578796387 119.67839050292969 -0.4426005482673645 0.027450980392156862
-18.945241928100586 134.49136352539062 -0.2854549288749695 0.1450980392156863
-5.997957229614258 119.89329528808594 -0.4447247087955475 0.043137254901960784
-18.963104248046875 134.5275421142578 0.2861081063747406 0.10980392156862745
-6.210020542144775 120.13227081298828 -0.4465973973274231 0.01568627450980392
-19.067590713500977 134.66110229492188 0.8482946753501892 0.03529411764705882
-6.438244819641113 120.38956451416016 -0.4447820484638214 0.0196078431372549
-21.149383544921875 137.02218627929688 1.3671070337295532 0.03529411764705882
-6.67921257019043 120.66146087646484 -0.434607595205307 0.027450980392156862
-40.96902084350586 159.3856964111328 2.2117836475372314 0.09803921568627451
-6.98474645614624 121.00566101074219 -0.44121792912483215 0.01568627450980392
-33.155391693115234 150.60630798339844 3.200514078140259 0.1568627450980392
-7.337639808654785 121.40314483642578 -0.4512602388858795 0.027450980392156862
-7.711790561676025 121.82500457763672 -0.4465247690677643 0.01568627450980392
-8.179265022277832 122.35171508789062 -0.4536014795303345 0.03137254901960784
-8.722458839416504 122.9638442993164 -0.4585888981819153 0.01568627450980392
-9.452500343322754 123.78582000732422 -0.49042630195617676 0.011764705882352941
-26.65509605407715 143.39071655273438 7.160731792449951 0.2
-5.065677642822266 118.85966491699219 -0.438295841217041 0.01568627450980392
-10.285548210144043 124.77859497070312 -0.5101441144943237 0.01568627450980392
-5.186890125274658 118.9972152709961 -0.43646371364593506 0.01568627450980392
-11.450957298278809 126.09925079345703 -0.5556854009628296 0.011764705882352941
-5.330874919891357 119.16024017333984 -0.44710099697113037 0.0196078431372549
-13.45372486114502 128.36643981933594 -0.7188337445259094 0.00784313725490196
-5.471635341644287 119.31996154785156 -0.44494083523750305 0.01568627450980392
-15.74476146697998 130.9630126953125 -0.7960642576217651 0.054901960784313725
-5.619718074798584 119.48812866210938 -0.43796128034591675 0.023529411764705882
-18.419818878173828 133.99781799316406 -0.7797272801399231 0.023529411764705882
-5.798583030700684 119.69083404541016 -0.44464656710624695 0.03137254901960784
-18.948379516601562 134.61093139648438 -0.2948499023914337 0.12156862745098039
-5.985018730163574 119.9023208618164 -0.4441715180873871 0.043137254901960784
-18.95306396484375 134.63235473632812 0.2801230251789093 0.09411764705882353
-6.1975417137146 120.143310546875 -0.4469068944454193 0.01568627450980392
-19.01094627380371 134.7138671875 0.8467768430709839 0.050980392156862744
-6.4237236976623535 120.39994049072266 -0.4443528950214386 0.0196078431372549
-21.398908615112305 137.43685913085938 1.3574413061141968 0.0392156862745098
-6.660092830657959 120.66839599609375 -0.43209606409072876 0.0196078431372549
-40.99353790283203 159.6870574951172 2.209991455078125 0.09803921568627451
-6.970778465270996 121.0205307006836 -0.4422672688961029 0.01568627450980392
-7.319901943206787 121.41629791259766 -0.45104101300239563 0.027450980392156862
-7.691445827484131 121.83788299560547 -0.44579899311065674 0.01568627450980392
-26.628524780273438 143.459716796875 4.60298490524292 0.1411764705882353
-8.155966758728027 122.36460876464844 -0.4524679183959961 0.03137254901960784
-8.689482688903809 122.96971893310547 -0.4546743333339691 0.01568627450980392
-26.576932907104492 143.4486083984375 6.295976161956787 0.1843137254901961
-9.427239418029785 123.80555725097656 -0.4905720353126526 0.011764705882352941
-26.53662109375 143.42681884765625 7.151065349578857 0.39215686274509803
-5.054956912994385 118.8646240234375 -0.43632787466049194 0.01568627450980392
-10.246787071228027 124.7891845703125 -0.5071812272071838 0.01568627450980392
-5.1745686531066895 119.00123596191406 -0.43353623151779175 0.01568627450980392
-11.405387878417969 126.11048126220703 -0.5525192618370056 0.011764705882352941
-5.321449279785156 119.16851806640625 -0.4473325312137604 0.0196078431372549
-13.394428253173828 128.37646484375 -0.7147875428199768 0.00784313725490196
-5.459375381469727 119.32608032226562 -0.44324737787246704 0.0196078431372549
-15.736177444458008 131.04708862304688 -0.8049099445343018 0.054901960784313725
-5.615164756774902 119.50392150878906 -0.4428550601005554 0.023529411764705882
-18.337453842163086 134.01727294921875 -0.7767157554626465 0.023529411764705882
-5.781521320343018 119.69388580322266 -0.4404887557029724 0.027450980392156862
-18.954858779907227 134.73521423339844 -0.30476588010787964 0.12156862745098039
-5.96722936630249 119.9058837890625 -0.4402393102645874 0.0392156862745098
-18.96095085144043 134.75827026367188 0.2723655104637146 0.09411764705882353
-6.187463283538818 120.15704345703125 -0.4488176107406616 0.01568627450980392
-18.998931884765625 134.81753540039062 0.8425374627113342 0.07058823529411765
-6.410401821136475 120.4116439819336 -0.4446801245212555 0.0196078431372549
-21.29009437561035 137.44729614257812 1.3568899631500244 0.0392156862745098
-6.643447399139404 120.67805480957031 -0.43101251125335693 0.0196078431372549
-40.99280548095703 159.96194458007812 2.2079622745513916 0.09803921568627451
-6.958007335662842 121.0367660522461 -0.4439862072467804 0.01568627450980392
-26.553375244140625 143.49867248535156 2.9077541828155518 0.19607843137254902
-7.295825004577637 121.42228698730469 -0.44767919182777405 0.023529411764705882
-26.525495529174805 143.49029541015625 3.7480287551879883 0.27450980392156865
-7.672335624694824 121.85213470458984 -0.44565364718437195 0.01568627450980392
-8.133914947509766 122.37886047363281 -0.4518694281578064 0.03137254901960784
-8.669365882873535 122.98997497558594 -0.45569396018981934 0.01568627450980392
-9.391592025756836 123.81352996826172 -0.4871225655078888 0.011764705882352941
-26.381742477416992 143.42066955566406 7.133270263671875 0.2980392156862745
-5.049813747406006 118.87579345703125 -0.43979960680007935 0.01568627450980392
-10.201581954956055 124.79225158691406 -0.5021947622299194 0.0196078431372549
-5.169044017791748 119.01284790039062 -0.4369000196456909 0.01568627450980392
-11.377999305725098 126.1422348022461 -0.554353654384613 0.0196078431372549
-5.31085205078125 119.17548370361328 -0.44655346870422363 0.0196078431372549
-13.324773788452148 128.3743438720703 -0.7082352638244629 0.00784313725490196
-5.448268890380859 119.33345031738281 -0.4425206780433655 0.0196078431372549
-15.732419967651367 131.13722229003906 -0.8148168325424194 0.054901960784313725
-5.602309226989746 119.51044464111328 -0.44125574827194214 0.027450980392156862
-18.255130767822266 134.036376953125 -0.7736896872520447 0.023529411764705882
-5.771610736846924 119.70492553710938 -0.4416447579860687 0.027450980392156862
-18.955482482910156 134.85369873046875 -0.3139896094799042 0.12549019607843137
-5.963877201080322 119.9256591796875 -0.44643568992614746 0.043137254901960784
-18.96296501159668 134.87840270996094 0.2651137709617615 0.09411764705882353
-6.170050144195557 120.16252136230469 -0.4459161162376404 0.01568627450980392
-18.99956703186035 134.93637084960938 0.8374956250190735 0.07058823529411765
-6.392144203186035 120.41776275634766 -0.4419693350791931 0.027450980392156862
-21.427019119262695 137.7392120361328 1.3499926328659058 0.0392156862745098
-6.639143943786621 120.70164489746094 -0.43708428740501404 0.023529411764705882
-26.43557357788086 143.5127716064453 2.064826011657715 0.35294117647058826
-6.941441059112549 121.0487289428711 -0.44368696212768555 0.01568627450980392
-26.393142700195312 143.48731994628906 2.90230393409729 0.19607843137254902
-7.284313678741455 121.44242095947266 -0.45059341192245483 0.0196078431372549
-7.654451847076416 121.86775207519531 -0.4460887610912323 0.0196078431372549
-26.33254623413086 143.46449279785156 4.584207057952881 0.13725490196078433
-8.11564826965332 122.39736938476562 -0.45288360118865967 0.027450980392156862
-26.29753875732422 143.44761657714844 5.423308849334717 0.2627450980392157
-8.647905349731445 123.00872039794922 -0.45621609687805176 0.01568627450980392
-9.36368179321289 123.83013916015625 -0.48636069893836975 0.011764705882352941
-26.243980407714844 143.4332733154297 7.119284152984619 0.39215686274509803
-5.042396068572998 118.88445281982422 -0.4410933554172516 0.01568627450980392
-10.177022933959961 124.8187484741211 -0.5036554932594299 0.03137254901960784
-5.157827377319336 119.01806640625 -0.435017853975296 0.01568627450980392
-11.3466157913208 126.16946411132812 -0.5551098585128784 0.0196078431372549
-5.2968058586120605 119.17852783203125 -0.4427453875541687 0.0196078431372549
-13.256531715393066 128.3734130859375 -0.7019833922386169 0.00784313725490196
-5.440616130828857 119.3447265625 -0.44469860196113586 0.0196078431372549
-15.74122142791748 131.242431640625 -0.8273816704750061 0.058823529411764705
-5.58709716796875 119.5142593383789 -0.43779852986335754 0.023529411764705882
-18.183265686035156 134.06715393066406 -0.7724076509475708 0.023529411764705882
-5.7640299797058105 119.71862030029297 -0.4445718824863434 0.027450980392156862
-18.960737228393555 134.9783935546875 -0.3239079713821411 0.12549019607843137
-5.947256088256836 119.93048095703125 -0.44334325194358826 0.047058823529411764
-18.970916748046875 135.00628662109375 0.2572265863418579 0.09803921568627451
-6.156266212463379 120.17205810546875 -0.4454174041748047 0.01568627450980392
-18.99829864501953 135.0538787841797 0.8325337767601013 0.07058823529411765
-6.378767490386963 120.42937469482422 -0.4422916769981384 0.027450980392156862
-19.09282684326172 135.17910766601562 1.4075133800506592 0.027450980392156862
-6.621181488037109 120.7098159790039 -0.43528038263320923 0.0196078431372549
-26.291074752807617 143.5189971923828 2.062195301055908 0.34901960784313724
-6.921114921569824 121.05638885498047 -0.44136884808540344 0.01568627450980392
-26.254114151000977 143.4994354248047 2.897825241088867 0.19215686274509805
-7.271468162536621 121.46111297607422 -0.452877938747406 0.01568627450980392
-26.23974609375 143.5060272216797 3.7346158027648926 0.27058823529411763
-7.642814636230469 121.89051055908203 -0.44944047927856445 0.01568627450980392
-26.19139862060547 143.47344970703125 4.575616836547852 0.13725490196078433
-8.090978622436523 122.40857696533203 -0.4511996805667877 0.027450980392156862
-26.13980484008789 143.4369354248047 5.410155773162842 0.17254901960784313
-8.623834609985352 123.02447509765625 -0.4557463228702545 0.01568627450980392
-9.33701229095459 123.8481216430664 -0.48604345321655273 0.011764705882352941
-26.094751358032227 143.43177795410156 7.102704048156738 0.29411764705882354
-5.0289306640625 118.88719940185547 -0.4369548261165619 0.01568627450980392
-10.13034439086914 124.82278442382812 -0.4986916184425354 0.01568627450980392
-5.147228240966797 119.02495574951172 -0.4341948628425598 0.01568627450980392
-11.304387092590332 126.18768310546875 -0.5533966422080994 0.0196078431372549
-5.287936210632324 119.1884536743164 -0.44399312138557434 0.0196078431372549
-13.173357009887695 128.35903930664062 -0.6926483511924744 0.00784313725490196
-5.431209087371826 119.35514831542969 -0.445919394493103 0.01568627450980392
-15.740362167358398 131.34262084960938 -0.8386816382408142 0.058823529411764705
-5.580644607543945 119.52918243408203 -0.4417751133441925 0.023529411764705882
-18.101743698120117 134.0928192138672 -0.7700887322425842 0.023529411764705882
-5.751049041748047 119.72744750976562 -0.4439672827720642 0.027450980392156862
-18.95946502685547 135.10313415527344 -0.33355867862701416 0.12941176470588237
-5.934752941131592 119.9412612915039 -0.4436415433883667 0.047058823529411764
-18.967105865478516 135.12814331054688 0.25002142786979675 0.09803921568627451
